785071.64 628392.36 6.82
785074.11 628388.01 6.68
785076.58 628383.66 6.56
785079.05 628379.31 5.96
785081.51 628374.96 5.19
785083.98 628370.61 4.43
785086.45 628366.26 3.67
785088.92 628361.91 2.89
785063.66 628416.57 4.22
785066.12 628412.22 5.16
785068.59 628407.87 6.08
785071.06 628403.52 6.75
785073.53 628399.17 6.89
785075.99 628394.82 6.86
785078.46 628390.47 6.73
785080.93 628386.13 6.59
785083.40 628381.78 6.12
785085.86 628377.43 5.38
785088.33 628373.08 4.66
785090.80 628368.73 3.94
785093.27 628364.38 3.24
785095.73 628360.03 2.32
785070.47 628414.69 4.91
785072.94 628410.34 5.82
785075.41 628405.99 6.71
785077.87 628401.64 6.94
785080.34 628397.29 6.88
785082.81 628392.94 6.77
785085.28 628388.59 6.66
785087.74 628384.24 6.57
785090.21 628379.90 5.94
785092.68 628375.55 5.22
785095.15 628371.20 4.60
785097.61 628366.85 3.89
785100.08 628362.50 2.54
785074.82 628417.15 4.78
785077.29 628412.80 5.57
785079.76 628408.46 6.48
785082.22 628404.11 6.91
785084.69 628399.76 6.91
785087.16 628395.41 6.81
785089.63 628391.06 6.71
785092.09 628386.71 6.56
785094.56 628382.36 6.50
785097.03 628378.01 5.95
785099.50 628373.67 5.34
785101.96 628369.32 4.39
785104.43 628364.97 2.85
785079.17 628419.62 4.72
785081.64 628415.27 5.43
785084.10 628410.92 6.26
785086.57 628406.57 6.89
785089.04 628402.23 6.97
785091.51 628397.88 6.81
785093.97 628393.53 6.67
785096.44 628389.18 6.61
785098.91 628384.83 6.46
785101.38 628380.48 6.29
785103.84 628376.13 5.91
785106.31 628371.78 4.76
785108.78 628367.44 3.41
785083.52 628422.09 4.41
785085.99 628417.74 5.46
785088.45 628413.39 6.06
785090.92 628409.04 6.75
785093.39 628404.69 6.94
785095.86 628400.34 6.83
785098.32 628396.00 6.66
785100.79 628391.65 6.50
785103.26 628387.30 6.43
785105.73 628382.95 6.41
785108.19 628378.60 6.06
785110.66 628374.25 4.89
785113.13 628369.90 3.56
785087.87 628424.56 4.00
785090.33 628420.21 5.25
785092.80 628415.86 5.86
785095.27 628411.51 6.44
785097.74 628407.16 6.92
785100.20 628402.81 6.91
785102.67 628398.46 6.70
785105.14 628394.11 6.57
785107.61 628389.77 6.53
785110.07 628385.42 6.57
785112.54 628381.07 6.22
785115.01 628376.72 5.02
785117.48 628372.37 3.86
785119.94 628368.02 2.83
785094.68 628422.67 4.97
785097.15 628418.33 5.65
785099.62 628413.98 6.32
785102.09 628409.63 6.72
785104.55 628405.28 6.90
785107.02 628400.93 6.74
785109.49 628396.58 6.58
785111.96 628392.23 6.55
785114.42 628387.88 6.63
785116.89 628383.54 6.27
785119.36 628379.19 5.41
785121.83 628374.84 4.27
785124.29 628370.49 3.02
785099.03 628425.14 4.82
785101.50 628420.79 5.58
785103.97 628416.44 6.11
785106.43 628412.10 6.78
785108.90 628407.75 6.95
785111.37 628403.40 6.86
785113.84 628399.05 6.77
785116.30 628394.70 6.72
785118.77 628390.35 6.43
785121.24 628386.00 6.07
785123.71 628381.65 5.65
785126.17 628377.31 4.65
785128.64 628372.96 3.36
785103.38 628427.61 4.47
785105.85 628423.26 5.44
785108.32 628418.91 6.32
785110.78 628414.56 6.85
785113.25 628410.21 6.80
785115.72 628405.87 6.82
785118.19 628401.52 6.79
785120.65 628397.17 6.72
785123.12 628392.82 6.37
785125.59 628388.47 5.96
785128.06 628384.12 5.64
785130.52 628379.77 5.17
785132.99 628375.42 3.80
785107.73 628430.08 4.34
785110.20 628425.73 5.42
785112.66 628421.38 6.17
785115.13 628417.03 6.75
785117.60 628412.68 6.86
785120.07 628408.33 6.84
785122.53 628403.98 6.82
785125.00 628399.64 6.77
785127.47 628395.29 6.46
785129.94 628390.94 6.01
785132.40 628386.59 5.57
785134.87 628382.24 4.99
785137.34 628377.89 4.14
785114.55 628428.20 5.08
785117.01 628423.85 5.86
785119.48 628419.50 6.59
785121.95 628415.15 6.92
785124.42 628410.80 6.89
785126.88 628406.45 6.86
785129.35 628402.10 6.84
785131.82 628397.75 6.52
785134.29 628393.40 6.09
785136.75 628389.06 5.75
785139.22 628384.71 5.32
785141.69 628380.36 4.15
785118.89 628430.66 4.75
785121.36 628426.31 5.55
785123.83 628421.96 6.37
785126.30 628417.62 6.82
785128.76 628413.27 6.95
785131.23 628408.92 6.92
785133.70 628404.57 6.89
785136.17 628400.22 6.85
785138.63 628395.87 6.51
785141.10 628391.52 6.19
785143.57 628387.17 5.32
785146.04 628382.83 4.15
785148.50 628378.48 3.13
785123.24 628433.13 4.50
785125.71 628428.78 5.24
785128.18 628424.43 6.06
785130.65 628420.08 6.80
785133.11 628415.73 7.00
785135.58 628411.39 6.97
785138.05 628407.04 6.95
785140.52 628402.69 6.93
785142.98 628398.34 6.94
785145.45 628393.99 6.48
785147.92 628389.64 5.50
785150.39 628385.29 4.51
785152.85 628380.94 3.06
785130.06 628431.25 5.25
785132.53 628426.90 5.88
785134.99 628422.55 6.57
785137.46 628418.20 7.04
785139.93 628413.85 6.98
785142.40 628409.50 6.97
785144.86 628405.16 6.86
785147.33 628400.81 6.98
785149.80 628396.46 6.99
785152.27 628392.11 6.11
785154.73 628387.76 4.93
785157.20 628383.41 3.90
785134.41 628433.72 5.35
785136.88 628429.37 5.94
785139.34 628425.02 6.49
785141.81 628420.67 6.67
785144.28 628416.32 6.81
785146.75 628411.97 6.91
785149.21 628407.62 6.99
785151.68 628403.27 6.98
785154.15 628398.93 6.80
785156.62 628394.58 6.59
785159.08 628390.23 5.64
785161.55 628385.88 4.33
785138.76 628436.18 5.09
785141.22 628431.83 5.78
785143.69 628427.49 6.06
785146.16 628423.14 6.54
785148.63 628418.79 6.68
785151.09 628414.44 6.82
785153.56 628410.09 6.97
785156.03 628405.74 6.95
785158.50 628401.39 6.90
785160.96 628397.04 6.64
785163.43 628392.70 5.92
785165.90 628388.35 4.65
785143.11 628438.65 4.71
785145.57 628434.30 5.61
785148.04 628429.95 6.05
785150.51 628425.60 6.47
785152.98 628421.26 6.70
785155.44 628416.91 6.86
785157.91 628412.56 7.01
785160.38 628408.21 6.91
785162.85 628403.86 7.00
785165.31 628399.51 6.68
785167.78 628395.16 6.16
785170.25 628390.81 5.10
785172.72 628386.47 3.95
785147.45 628441.12 4.31
785149.92 628436.77 5.44
785152.39 628432.42 5.90
785154.86 628428.07 6.25
785157.32 628423.72 6.76
785159.79 628419.37 7.04
785162.26 628415.03 6.99
785164.73 628410.68 6.97
785167.19 628406.33 7.08
785169.66 628401.98 6.60
785172.13 628397.63 6.23
785174.60 628393.28 5.47
785177.06 628388.93 4.23
785151.80 628443.59 3.88
785154.27 628439.24 5.21
785156.74 628434.89 5.74
785159.21 628430.54 6.22
785161.67 628426.19 6.74
785164.14 628421.84 6.92
785166.61 628417.49 7.11
785169.08 628413.14 7.13
785171.54 628408.80 6.82
785174.01 628404.45 6.64
785176.48 628400.10 6.23
785178.95 628395.75 5.46
785181.41 628391.40 4.64
785156.15 628446.05 3.46
785158.62 628441.70 4.97
785161.09 628437.36 5.66
785163.55 628433.01 6.11
785166.02 628428.66 6.47
785168.49 628424.31 6.81
785170.96 628419.96 7.12
785173.42 628415.61 7.04
785175.89 628411.26 6.86
785178.36 628406.91 6.68
785180.83 628402.57 6.22
785183.29 628398.22 5.46
785185.76 628393.87 4.69
785188.23 628389.52 3.84
785160.50 628448.52 3.04
785162.97 628444.17 4.63
785165.44 628439.82 5.43
785167.90 628435.47 5.85
785170.37 628431.13 6.20
785172.84 628426.78 6.57
785175.31 628422.43 6.94
785177.77 628418.08 7.07
785180.24 628413.73 6.90
785182.71 628409.38 6.72
785185.18 628405.03 6.21
785187.64 628400.68 5.45
785190.11 628396.34 5.00
785192.58 628391.99 4.33
785167.32 628446.64 4.25
785169.78 628442.29 5.20
785172.25 628437.94 5.75
785174.72 628433.59 6.19
785177.19 628429.24 6.58
785179.65 628424.90 6.98
785182.12 628420.55 7.08
785184.59 628416.20 6.94
785187.06 628411.85 6.79
785189.52 628407.50 6.21
785191.99 628403.15 5.89
785194.46 628398.80 5.45
785196.93 628394.45 4.86
785171.67 628449.11 3.88
785174.13 628444.76 4.97
785176.60 628440.41 5.69
785179.07 628436.06 6.27
785181.54 628431.71 6.74
785184.00 628427.36 7.04
785186.47 628423.01 7.05
785188.94 628418.67 6.97
785191.41 628414.32 6.92
785193.87 628409.97 6.78
785196.34 628405.62 6.36
785198.81 628401.27 5.69
785201.28 628396.92 4.93
785203.74 628392.57 3.87
785176.01 628451.57 3.51
785178.48 628447.23 4.74
785180.95 628442.88 5.58
785183.42 628438.53 6.08
785185.88 628434.18 6.62
785188.35 628429.83 6.99
785190.82 628425.48 7.12
785193.29 628421.13 7.03
785195.75 628416.78 7.08
785198.22 628412.44 6.92
785200.69 628408.09 6.67
785203.16 628403.74 6.22
785205.62 628399.39 5.18
785208.09 628395.04 4.29
785180.36 628454.04 3.13
785182.83 628449.69 4.51
785185.30 628445.34 5.37
785187.77 628441.00 5.82
785190.23 628436.65 6.28
785192.70 628432.30 6.72
785195.17 628427.95 7.07
785197.64 628423.60 7.07
785200.10 628419.25 6.97
785202.57 628414.90 6.78
785205.04 628410.55 6.40
785207.51 628406.21 5.98
785209.97 628401.86 5.45
785212.44 628397.51 4.54
785184.71 628456.51 2.76
785187.18 628452.16 4.17
785189.65 628447.81 5.10
785192.11 628443.46 5.56
785194.58 628439.11 6.02
785197.05 628434.77 6.49
785199.52 628430.42 6.97
785201.98 628426.07 7.01
785204.45 628421.72 6.90
785206.92 628417.37 6.53
785209.39 628413.02 6.11
785211.85 628408.67 5.70
785214.32 628404.32 5.28
785216.79 628399.98 4.88
785219.26 628395.63 3.71
785189.06 628458.98 2.38
785191.53 628454.63 3.79
785194.00 628450.28 4.81
785196.46 628445.93 5.31
785198.93 628441.58 5.83
785201.40 628437.23 6.35
785203.87 628432.88 6.86
785206.33 628428.54 7.01
785208.80 628424.19 6.65
785211.27 628419.84 6.24
785213.74 628415.49 5.91
785216.20 628411.14 5.67
785218.67 628406.79 5.37
785221.14 628402.44 5.14
785223.61 628398.09 4.27
785193.41 628461.44 2.01
785195.88 628457.10 3.42
785198.34 628452.75 4.45
785200.81 628448.40 5.01
785203.28 628444.05 5.57
785205.75 628439.70 6.13
785208.21 628435.35 6.69
785210.68 628431.00 6.89
785213.15 628426.65 6.58
785215.62 628422.31 6.28
785218.08 628417.96 6.03
785220.55 628413.61 5.87
785223.02 628409.26 5.65
785225.49 628404.91 5.43
785227.95 628400.56 4.69
785197.76 628463.91 1.62
785200.23 628459.56 3.04
785202.69 628455.21 4.16
785205.16 628450.87 4.75
785207.63 628446.52 5.34
785210.10 628442.17 5.93
785212.56 628437.82 6.52
785215.03 628433.47 6.92
785217.50 628429.12 6.70
785219.97 628424.77 6.49
785222.43 628420.42 6.28
785224.90 628416.07 6.07
785227.37 628411.73 5.86
785229.84 628407.38 5.66
785232.30 628403.03 5.09
785204.57 628462.03 2.67
785207.04 628457.68 3.98
785209.51 628453.33 4.68
785211.98 628448.98 5.31
785214.44 628444.63 5.95
785216.91 628440.29 6.58
785219.38 628435.94 6.98
785221.85 628431.59 6.93
785224.31 628427.24 6.74
785226.78 628422.89 6.53
785229.25 628418.54 6.32
785231.72 628414.19 6.11
785234.18 628409.84 5.84
785236.65 628405.50 5.11
785239.12 628401.15 4.11
785208.92 628464.50 2.32
785211.39 628460.15 3.64
785213.86 628455.80 4.70
785216.33 628451.45 5.42
785218.79 628447.10 6.05
785221.26 628442.75 6.58
785223.73 628438.40 6.89
785226.20 628434.06 7.07
785228.66 628429.71 7.03
785231.13 628425.36 6.77
785233.60 628421.01 6.56
785236.07 628416.66 6.36
785238.53 628412.31 6.02
785241.00 628407.96 5.30
785243.47 628403.61 4.40
785213.27 628466.96 1.92
785215.74 628462.62 3.46
785218.21 628458.27 4.61
785220.67 628453.92 5.46
785223.14 628449.57 6.16
785225.61 628445.22 6.53
785228.08 628440.87 6.76
785230.54 628436.52 6.99
785233.01 628432.17 7.11
785235.48 628427.83 7.18
785237.95 628423.48 6.81
785240.41 628419.13 6.74
785242.88 628414.78 6.17
785245.35 628410.43 5.57
785247.82 628406.08 4.56
785217.62 628469.43 1.74
785220.09 628465.08 3.36
785222.56 628460.73 4.46
785225.02 628456.39 5.01
785227.49 628452.04 5.67
785229.96 628447.69 6.46
785232.43 628443.34 6.74
785234.89 628438.99 6.94
785237.36 628434.64 7.08
785239.83 628430.29 6.92
785242.30 628425.94 6.76
785244.76 628421.60 6.38
785247.23 628417.25 5.93
785249.70 628412.90 5.46
785252.17 628408.55 4.65
785254.63 628404.20 3.94
785221.97 628471.90 1.32
785224.44 628467.55 2.95
785226.90 628463.20 3.53
785229.37 628458.85 4.33
785231.84 628454.50 5.15
785234.31 628450.16 5.96
785236.77 628445.81 6.67
785239.24 628441.46 6.88
785241.71 628437.11 6.92
785244.18 628432.76 6.77
785246.64 628428.41 6.45
785249.11 628424.06 5.99
785251.58 628419.71 5.53
785254.05 628415.37 5.08
785256.51 628411.02 4.62
785258.98 628406.67 4.07
785226.32 628474.37 1.15
785228.79 628470.02 2.17
785231.25 628465.67 2.99
785233.72 628461.32 3.80
785236.19 628456.97 4.62
785238.66 628452.62 5.44
785241.12 628448.27 6.26
785243.59 628443.93 6.84
785246.06 628439.58 6.79
785248.53 628435.23 6.51
785250.99 628430.88 6.06
785253.46 628426.53 5.60
785255.93 628422.18 5.14
785258.40 628417.83 4.69
785260.86 628413.48 4.23
785263.33 628409.14 3.77
785265.80 628404.79 3.31
785230.67 628476.83 0.87
785233.14 628472.49 1.80
785235.60 628468.14 2.65
785238.07 628463.79 3.51
785240.54 628459.44 4.36
785243.00 628455.09 5.22
785245.47 628450.74 6.07
785247.94 628446.39 6.80
785250.41 628442.04 6.58
785252.87 628437.70 6.12
785255.34 628433.35 5.66
785257.81 628429.00 5.23
785260.28 628424.65 4.89
785262.74 628420.30 4.60
785265.21 628415.95 4.30
785267.68 628411.60 4.01
785270.15 628407.25 3.36
785235.02 628479.30 0.63
785237.48 628474.95 1.50
785239.95 628470.60 2.39
785242.42 628466.26 3.27
785244.89 628461.91 4.16
785247.35 628457.56 5.04
785249.82 628453.21 5.93
785252.29 628448.86 6.74
785254.76 628444.51 6.42
785257.22 628440.16 6.13
785259.69 628435.81 5.84
785262.16 628431.47 5.54
785264.63 628427.12 5.25
785267.09 628422.77 4.95
785269.56 628418.42 4.66
785272.03 628414.07 4.20
785274.50 628409.72 3.57
785239.37 628481.77 0.44
785241.83 628477.42 1.33
785244.30 628473.07 2.23
785246.77 628468.72 3.12
785249.23 628464.37 4.02
785251.70 628460.03 4.93
785254.17 628455.68 5.83
785256.64 628451.33 6.74
785259.10 628446.98 6.78
785261.57 628442.63 6.49
785264.04 628438.28 6.19
785266.51 628433.93 5.90
785268.97 628429.58 5.60
785271.44 628425.24 5.31
785273.91 628420.89 5.02
785276.38 628416.54 4.35
785278.84 628412.19 3.75
785281.31 628407.84 2.80
785243.71 628484.24 0.26
785246.18 628479.89 1.07
785248.65 628475.54 1.96
785251.12 628471.19 2.86
785253.58 628466.84 3.79
785256.05 628462.49 4.72
785258.52 628458.14 5.68
785260.99 628453.80 6.65
785263.45 628449.45 6.85
785265.92 628445.10 6.82
785268.39 628440.75 6.55
785270.86 628436.40 6.25
785273.32 628432.05 5.96
785275.79 628427.70 5.67
785278.26 628423.35 5.26
785280.73 628419.01 4.69
785283.19 628414.66 3.95
785285.66 628410.31 2.69
785248.06 628486.70 0.11
785250.53 628482.36 0.82
785253.00 628478.01 1.79
785255.46 628473.66 2.76
785257.93 628469.31 3.74
785260.40 628464.96 4.71
785262.87 628460.61 5.68
785265.33 628456.26 6.56
785267.80 628451.91 6.85
785270.27 628447.57 6.98
785272.74 628443.22 6.85
785275.20 628438.87 6.61
785277.67 628434.52 6.32
785280.14 628430.17 6.02
785282.61 628425.82 5.58
785285.07 628421.47 5.10
785287.54 628417.12 4.45
785290.01 628412.78 2.80
785252.41 628489.17 -0.05
785254.88 628484.82 0.81
785257.35 628480.47 1.94
785259.81 628476.13 2.91
785262.28 628471.78 3.88
785264.75 628467.43 4.86
785267.22 628463.08 5.83
785269.68 628458.73 6.45
785272.15 628454.38 6.76
785274.62 628450.03 7.01
785277.09 628445.68 7.12
785279.55 628441.34 6.95
785282.02 628436.99 6.67
785284.49 628432.64 6.38
785286.96 628428.29 6.15
785289.42 628423.94 5.81
785291.89 628419.59 4.92
785294.36 628415.24 3.25
785259.23 628487.29 0.68
785261.70 628482.94 1.96
785264.16 628478.59 3.05
785266.63 628474.24 4.03
785269.10 628469.90 5.01
785271.56 628465.55 5.78
785274.03 628461.20 6.48
785276.50 628456.85 6.70
785278.97 628452.50 6.95
785281.43 628448.15 7.17
785283.90 628443.80 7.16
785286.37 628439.45 6.74
785288.84 628435.11 6.58
785291.30 628430.76 6.50
785293.77 628426.41 5.67
785296.24 628422.06 4.83
785298.71 628417.71 3.53
785301.17 628413.36 1.43
785263.58 628489.76 0.67
785266.04 628485.41 1.94
785268.51 628481.06 3.17
785270.98 628476.71 4.29
785273.45 628472.36 5.14
785275.91 628468.01 6.11
785278.38 628463.67 6.51
785280.85 628459.32 6.74
785283.32 628454.97 6.91
785285.78 628450.62 7.07
785288.25 628446.27 6.71
785290.72 628441.92 6.56
785293.19 628437.57 6.56
785295.65 628433.22 6.52
785298.12 628428.88 5.56
785300.59 628424.53 4.61
785303.06 628420.18 3.38
785305.52 628415.83 1.83
785267.93 628492.23 0.55
785270.39 628487.88 1.85
785272.86 628483.53 3.16
785275.33 628479.18 4.01
785277.79 628474.83 4.85
785280.26 628470.48 5.61
785282.73 628466.13 6.32
785285.20 628461.78 6.63
785287.66 628457.44 6.86
785290.13 628453.09 6.68
785292.60 628448.74 6.54
785295.07 628444.39 6.54
785297.53 628440.04 6.56
785300.00 628435.69 6.54
785302.47 628431.34 5.65
785304.94 628426.99 4.61
785307.40 628422.65 3.67
785309.87 628418.30 2.07
785272.27 628494.69 0.45
785274.74 628490.34 1.62
785277.21 628486.00 2.52
785279.68 628481.65 3.47
785282.14 628477.30 4.45
785284.61 628472.95 5.31
785287.08 628468.60 6.07
785289.55 628464.25 6.58
785292.01 628459.90 6.69
785294.48 628455.55 6.52
785296.95 628451.21 6.52
785299.42 628446.86 6.54
785301.88 628442.51 6.56
785304.35 628438.16 6.55
785306.82 628433.81 5.75
785309.29 628429.46 4.71
785311.75 628425.11 3.66
785314.22 628420.76 2.62
785316.69 628416.41 0.92
785276.62 628497.16 0.30
785279.09 628492.81 1.53
785281.56 628488.46 2.58
785284.02 628484.11 3.33
785286.49 628479.77 4.12
785288.96 628475.42 4.98
785291.43 628471.07 5.83
785293.89 628466.72 6.54
785296.36 628462.37 6.50
785298.83 628458.02 6.49
785301.30 628453.67 6.51
785303.76 628449.32 6.53
785306.23 628444.97 6.55
785308.70 628440.63 6.57
785311.17 628436.28 5.85
785313.63 628431.93 4.80
785316.10 628427.58 3.76
785318.57 628423.23 2.72
785321.04 628418.88 1.67
785280.97 628499.63 0.25
785283.44 628495.28 1.44
785285.91 628490.93 2.62
785288.37 628486.58 3.42
785290.84 628482.23 4.17
785293.31 628477.88 4.92
785295.78 628473.53 5.72
785298.24 628469.19 6.48
785300.71 628464.84 6.47
785303.18 628460.49 6.49
785305.65 628456.14 6.51
785308.11 628451.79 6.53
785310.58 628447.44 6.55
785313.05 628443.09 6.57
785315.52 628438.74 5.94
785317.98 628434.40 4.90
785320.45 628430.05 3.86
785322.92 628425.70 2.81
785325.39 628421.35 1.85
785285.32 628502.10 0.16
785287.79 628497.75 1.35
785290.26 628493.40 2.53
785292.72 628489.05 3.52
785295.19 628484.70 4.27
785297.66 628480.35 5.02
785300.12 628476.00 5.77
785302.59 628471.65 6.44
785305.06 628467.30 6.47
785307.53 628462.96 6.49
785309.99 628458.61 6.51
785312.46 628454.26 6.53
785314.93 628449.91 6.55
785317.40 628445.56 6.57
785319.86 628441.21 6.04
785322.33 628436.86 5.00
785324.80 628432.51 3.95
785327.27 628428.17 2.91
785329.73 628423.82 2.11
785289.67 628504.56 0.15
785292.14 628500.21 1.26
785294.60 628495.86 2.44
785297.07 628491.52 3.61
785299.54 628487.17 4.36
785302.01 628482.82 5.11
785304.47 628478.47 5.85
785306.94 628474.12 6.38
785309.41 628469.77 6.52
785311.88 628465.42 6.50
785314.34 628461.07 6.50
785316.81 628456.73 6.52
785319.28 628452.38 6.54
785321.75 628448.03 6.56
785324.21 628443.68 6.14
785326.68 628439.33 5.09
785329.15 628434.98 4.05
785331.62 628430.63 3.19
785334.08 628426.28 2.26
785336.55 628421.94 1.13
785294.02 628507.03 0.16
785296.49 628502.68 1.29
785298.95 628498.33 2.35
785301.42 628493.98 3.53
785303.89 628489.63 4.46
785306.35 628485.29 5.21
785308.82 628480.94 5.84
785311.29 628476.59 6.33
785313.76 628472.24 6.64
785316.22 628467.89 6.63
785318.69 628463.54 6.57
785321.16 628459.19 6.52
785323.63 628454.84 6.54
785326.09 628450.50 6.56
785328.56 628446.15 6.23
785331.03 628441.80 5.19
785333.50 628437.45 4.22
785335.96 628433.10 3.43
785338.43 628428.75 2.56
785340.90 628424.40 1.58
785298.37 628509.50 0.21
785300.83 628505.15 1.26
785303.30 628500.80 2.42
785305.77 628496.45 3.49
785308.24 628492.10 4.55
785310.70 628487.75 5.31
785313.17 628483.40 5.86
785315.64 628479.06 6.31
785318.11 628474.71 6.63
785320.57 628470.36 6.90
785323.04 628466.01 6.79
785325.51 628461.66 6.72
785327.98 628457.31 6.54
785330.44 628452.96 6.56
785332.91 628448.61 6.30
785335.38 628444.27 5.29
785337.85 628439.92 4.55
785340.31 628435.57 3.82
785342.78 628431.22 3.15
785345.25 628426.87 2.16
785302.72 628511.96 0.20
785305.18 628507.62 1.25
785307.65 628503.27 2.33
785310.12 628498.92 3.41
785312.59 628494.57 4.37
785315.05 628490.22 5.23
785317.52 628485.87 5.84
785319.99 628481.52 6.36
785322.45 628477.17 6.72
785324.92 628472.83 6.93
785327.39 628468.48 7.17
785329.86 628464.13 7.00
785332.32 628459.78 6.82
785334.79 628455.43 6.56
785337.26 628451.08 6.35
785339.73 628446.73 5.57
785342.19 628442.38 4.99
785344.66 628438.04 4.51
785347.13 628433.69 3.36
785349.60 628429.34 2.31
785307.06 628514.43 0.23
785309.53 628510.08 1.27
785312.00 628505.73 2.25
785314.47 628501.39 3.08
785316.93 628497.04 4.01
785319.40 628492.69 4.92
785321.87 628488.34 5.74
785324.34 628483.99 6.29
785326.80 628479.64 6.67
785329.27 628475.29 6.99
785331.74 628470.94 7.21
785334.21 628466.60 7.23
785336.67 628462.25 7.01
785339.14 628457.90 6.79
785341.61 628453.55 6.32
785344.08 628449.20 5.49
785346.54 628444.85 4.70
785349.01 628440.50 4.09
785351.48 628436.15 3.48
785353.95 628431.81 2.26
785356.41 628427.46 0.52
785308.95 628521.25 -0.28
785311.41 628516.90 0.25
785313.88 628512.55 1.32
785316.35 628508.20 2.15
785318.82 628503.85 2.98
785321.28 628499.50 3.81
785323.75 628495.16 4.67
785326.22 628490.81 5.55
785328.68 628486.46 6.20
785331.15 628482.11 6.54
785333.62 628477.76 6.84
785336.09 628473.41 6.90
785338.55 628469.06 7.21
785341.02 628464.71 7.03
785343.49 628460.37 6.81
785345.96 628456.02 6.39
785348.42 628451.67 5.49
785350.89 628447.32 4.58
785353.36 628442.97 3.82
785355.83 628438.62 3.19
785358.29 628434.27 2.23
785360.76 628429.92 1.04
785313.29 628523.72 -0.22
785315.76 628519.37 0.39
785318.23 628515.02 1.22
785320.70 628510.67 2.05
785323.16 628506.32 2.88
785325.63 628501.97 3.71
785328.10 628497.62 4.54
785330.57 628493.27 5.37
785333.03 628488.93 6.13
785335.50 628484.58 6.47
785337.97 628480.23 6.62
785340.44 628475.88 6.94
785342.90 628471.53 7.25
785345.37 628467.18 7.04
785347.84 628462.83 6.80
785350.31 628458.48 6.41
785352.77 628454.14 5.55
785355.24 628449.79 4.65
785357.71 628445.44 3.74
785360.18 628441.09 2.92
785362.64 628436.74 2.29
785365.11 628432.39 1.04
785317.64 628526.18 -0.14
785320.11 628521.83 0.44
785322.58 628517.49 1.26
785325.05 628513.14 2.07
785327.51 628508.79 2.89
785329.98 628504.44 3.71
785332.45 628500.09 4.52
785334.91 628495.74 5.34
785337.38 628491.39 6.09
785339.85 628487.04 6.34
785342.32 628482.70 6.66
785344.78 628478.35 6.98
785347.25 628474.00 7.29
785349.72 628469.65 7.05
785352.19 628465.30 6.78
785354.65 628460.95 6.42
785357.12 628456.60 5.62
785359.59 628452.25 4.72
785362.06 628447.91 3.81
785364.52 628443.56 2.91
785366.99 628439.21 2.02
785369.46 628434.86 1.31
785321.99 628528.65 -0.04
785324.46 628524.30 0.80
785326.93 628519.95 1.54
785329.39 628515.60 2.31
785331.86 628511.26 3.07
785334.33 628506.91 3.84
785336.80 628502.56 4.60
785339.26 628498.21 5.37
785341.73 628493.86 6.06
785344.20 628489.51 6.38
785346.67 628485.16 6.70
785349.13 628480.81 7.02
785351.60 628476.47 7.33
785354.07 628472.12 7.07
785356.54 628467.77 6.76
785359.00 628463.42 6.45
785361.47 628459.07 5.69
785363.94 628454.72 4.79
785366.41 628450.37 3.88
785368.87 628446.02 2.98
785371.34 628441.68 2.07
785373.81 628437.33 1.13
785326.34 628531.12 0.06
785328.81 628526.77 0.84
785331.28 628522.42 1.58
785333.74 628518.07 2.35
785336.21 628513.72 3.11
785338.68 628509.37 3.87
785341.15 628505.03 4.63
785343.61 628500.68 5.39
785346.08 628496.33 6.07
785348.55 628491.98 6.42
785351.01 628487.63 6.74
785353.48 628483.28 7.06
785355.95 628478.93 7.32
785358.42 628474.58 7.08
785360.88 628470.24 6.76
785363.35 628465.89 6.48
785365.82 628461.54 5.76
785368.29 628457.19 4.86
785370.75 628452.84 3.95
785373.22 628448.49 3.05
785375.69 628444.14 2.14
785378.16 628439.79 1.00
785380.62 628435.45 0.20
785330.69 628533.59 0.16
785333.16 628529.24 0.82
785335.62 628524.89 1.53
785338.09 628520.54 2.26
785340.56 628516.19 3.01
785343.03 628511.84 3.78
785345.49 628507.49 4.54
785347.96 628503.14 5.29
785350.43 628498.80 6.03
785352.90 628494.45 6.47
785355.36 628490.10 6.78
785357.83 628485.75 7.10
785360.30 628481.40 7.29
785362.77 628477.05 7.10
785365.23 628472.70 6.80
785367.70 628468.35 6.51
785370.17 628464.01 5.83
785372.64 628459.66 4.93
785375.10 628455.31 4.02
785377.57 628450.96 3.12
785380.04 628446.61 2.11
785382.51 628442.26 1.04
785384.97 628437.91 0.20
785335.04 628536.05 0.28
785337.51 628531.70 0.92
785339.97 628527.36 1.63
785342.44 628523.01 2.34
785344.91 628518.66 3.05
785347.38 628514.31 3.76
785349.84 628509.96 4.48
785352.31 628505.61 5.21
785354.78 628501.26 5.93
785357.24 628496.91 6.50
785359.71 628492.57 6.82
785362.18 628488.22 7.14
785364.65 628483.87 7.29
785367.11 628479.52 7.11
785369.58 628475.17 6.82
785372.05 628470.82 6.53
785374.52 628466.47 5.90
785376.98 628462.12 5.00
785379.45 628457.78 4.09
785381.92 628453.43 3.22
785384.39 628449.08 2.36
785386.85 628444.73 1.47
785389.32 628440.38 0.51
785339.39 628538.52 0.44
785341.85 628534.17 0.98
785344.32 628529.82 1.72
785346.79 628525.47 2.43
785349.26 628521.13 3.14
785351.72 628516.78 3.85
785354.19 628512.43 4.56
785356.66 628508.08 5.27
785359.13 628503.73 6.02
785361.59 628499.38 6.61
785364.06 628495.03 6.94
785366.53 628490.68 7.18
785369.00 628486.34 7.31
785371.46 628481.99 7.13
785373.93 628477.64 6.84
785376.40 628473.29 6.55
785378.87 628468.94 5.97
785381.33 628464.59 5.07
785383.80 628460.24 4.33
785386.27 628455.89 3.67
785388.74 628451.55 2.92
785391.20 628447.20 2.17
785393.67 628442.85 1.53
785341.27 628545.34 -0.12
785343.74 628540.99 0.49
785346.20 628536.64 1.05
785348.67 628532.29 1.77
785351.14 628527.94 2.52
785353.61 628523.59 3.24
785356.07 628519.24 3.95
785358.54 628514.90 4.66
785361.01 628510.55 5.45
785363.47 628506.20 6.23
785365.94 628501.85 6.81
785368.41 628497.50 7.13
785370.88 628493.15 7.30
785373.34 628488.80 7.32
785375.81 628484.45 7.14
785378.28 628480.11 6.86
785380.75 628475.76 6.56
785383.21 628471.41 6.04
785385.68 628467.06 5.40
785388.15 628462.71 4.98
785390.62 628458.36 4.46
785393.08 628454.01 3.96
785395.55 628449.66 3.58
785398.02 628445.31 2.94
785345.62 628547.80 -0.03
785348.08 628543.46 0.56
785350.55 628539.11 1.22
785353.02 628534.76 1.86
785355.49 628530.41 2.55
785357.95 628526.06 3.29
785360.42 628521.71 4.04
785362.89 628517.36 4.92
785365.36 628513.01 5.54
785367.82 628508.67 6.31
785370.29 628504.32 6.70
785372.76 628499.97 7.01
785375.23 628495.62 7.12
785377.69 628491.27 7.17
785380.16 628486.92 7.05
785382.63 628482.57 6.87
785385.10 628478.22 6.40
785387.56 628473.88 6.01
785390.03 628469.53 5.93
785392.50 628465.18 6.09
785394.97 628460.83 5.51
785397.43 628456.48 5.12
785399.90 628452.13 4.43
785402.37 628447.78 3.83
785349.97 628550.27 0.07
785352.43 628545.92 0.65
785354.90 628541.57 1.36
785357.37 628537.23 2.00
785359.84 628532.88 2.69
785362.30 628528.53 3.34
785364.77 628524.18 4.09
785367.24 628519.83 4.83
785369.71 628515.48 5.58
785372.17 628511.13 6.22
785374.64 628506.78 6.64
785377.11 628502.44 6.79
785379.57 628498.09 6.95
785382.04 628493.74 6.91
785384.51 628489.39 6.98
785386.98 628485.04 6.83
785389.44 628480.69 6.14
785391.91 628476.34 5.60
785394.38 628471.99 5.24
785396.85 628467.64 5.27
785399.31 628463.30 5.12
785401.78 628458.95 4.66
785404.25 628454.60 4.36
785406.72 628450.25 3.49
785354.31 628552.74 0.21
785356.78 628548.39 0.82
785359.25 628544.04 1.48
785361.72 628539.69 2.18
785364.18 628535.34 2.80
785366.65 628531.00 3.58
785369.12 628526.65 4.28
785371.59 628522.30 4.98
785374.05 628517.95 5.71
785376.52 628513.60 6.30
785378.99 628509.25 6.51
785381.46 628504.90 6.73
785383.92 628500.55 6.77
785386.39 628496.20 6.84
785388.86 628491.86 6.90
785391.33 628487.51 6.78
785393.79 628483.16 6.07
785396.26 628478.81 5.15
785398.73 628474.46 4.72
785401.20 628470.11 4.47
785403.66 628465.76 4.47
785406.13 628461.41 3.80
785408.60 628457.07 3.52
785411.07 628452.72 3.37
785358.66 628555.21 0.27
785361.13 628550.86 0.93
785363.60 628546.51 1.57
785366.07 628542.16 2.41
785368.53 628537.81 3.09
785371.00 628533.46 3.77
785373.47 628529.11 4.44
785375.94 628524.76 5.22
785378.40 628520.42 5.95
785380.87 628516.07 6.30
785383.34 628511.72 6.59
785385.80 628507.37 6.63
785388.27 628503.02 6.69
785390.74 628498.67 6.76
785393.21 628494.32 6.83
785395.67 628489.97 6.74
785398.14 628485.63 6.01
785400.61 628481.28 5.09
785403.08 628476.93 4.30
785405.54 628472.58 3.79
785408.01 628468.23 3.73
785410.48 628463.88 3.21
785412.95 628459.53 2.42
785363.01 628557.67 0.40
785365.48 628553.33 1.12
785367.95 628548.98 1.84
785370.41 628544.63 2.68
785372.88 628540.28 3.34
785375.35 628535.93 3.99
785377.82 628531.58 4.75
785380.28 628527.23 5.48
785382.75 628522.88 6.09
785385.22 628518.53 6.41
785387.69 628514.19 6.48
785390.15 628509.84 6.55
785392.62 628505.49 6.62
785395.09 628501.14 6.68
785397.56 628496.79 6.75
785400.02 628492.44 6.69
785402.49 628488.09 5.94
785404.96 628483.74 5.02
785407.43 628479.40 4.10
785409.89 628475.05 3.46
785412.36 628470.70 3.00
785414.83 628466.35 2.67
785417.30 628462.00 1.75
785367.36 628560.14 0.51
785369.83 628555.79 1.54
785372.30 628551.44 2.10
785374.76 628547.09 2.94
785377.23 628542.75 3.63
785379.70 628538.40 4.28
785382.17 628534.05 4.93
785384.63 628529.70 5.66
785387.10 628525.35 6.29
785389.57 628521.00 6.34
785392.04 628516.65 6.41
785394.50 628512.30 6.47
785396.97 628507.96 6.54
785399.44 628503.61 6.61
785401.90 628499.26 6.68
785404.37 628494.91 6.65
785406.84 628490.56 5.88
785409.31 628486.21 4.96
785411.77 628481.86 4.04
785414.24 628477.51 3.10
785416.71 628473.17 2.54
785419.18 628468.82 2.15
785369.24 628566.96 -0.03
785371.71 628562.61 0.77
785374.18 628558.26 1.58
785376.64 628553.91 2.38
785379.11 628549.56 3.19
785381.58 628545.21 3.91
785384.05 628540.86 4.56
785386.51 628536.52 5.21
785388.98 628532.17 5.87
785391.45 628527.82 6.36
785393.92 628523.47 6.32
785396.38 628519.12 6.33
785398.85 628514.77 6.40
785401.32 628510.42 6.47
785403.79 628506.07 6.53
785406.25 628501.73 6.60
785408.72 628497.38 6.60
785411.19 628493.03 5.82
785413.66 628488.68 4.89
785416.12 628484.33 3.97
785418.59 628479.98 3.05
785421.06 628475.63 2.21
785423.53 628471.28 1.61
785373.59 628569.42 0.24
785376.06 628565.08 1.38
785378.53 628560.73 1.85
785380.99 628556.38 2.65
785383.46 628552.03 3.45
785385.93 628547.68 4.20
785388.40 628543.33 4.85
785390.86 628538.98 5.46
785393.33 628534.63 6.05
785395.80 628530.29 6.53
785398.27 628525.94 6.46
785400.73 628521.59 6.37
785403.20 628517.24 6.32
785405.67 628512.89 6.39
785408.13 628508.54 6.46
785410.60 628504.19 6.52
785413.07 628499.84 6.54
785415.54 628495.50 5.75
785418.00 628491.15 4.83
785420.47 628486.80 3.91
785422.94 628482.45 2.99
785425.41 628478.10 2.05
785427.87 628473.75 1.71
785377.94 628571.89 0.71
785380.41 628567.54 1.56
785382.87 628563.19 2.14
785385.34 628558.85 2.85
785387.81 628554.50 3.66
785390.28 628550.15 4.54
785392.74 628545.80 5.26
785395.21 628541.45 5.83
785397.68 628537.10 6.30
785400.15 628532.75 6.56
785402.61 628528.40 6.80
785405.08 628524.06 6.53
785407.55 628519.71 6.41
785410.02 628515.36 6.31
785412.48 628511.01 6.38
785414.95 628506.66 6.45
785417.42 628502.31 6.49
785419.89 628497.96 5.69
785422.35 628493.61 4.77
785424.82 628489.27 3.85
785427.29 628484.92 2.92
785429.76 628480.57 2.00
785379.82 628578.71 0.10
785382.29 628574.36 0.97
785384.76 628570.01 1.66
785387.22 628565.66 2.39
785389.69 628561.31 3.11
785392.16 628556.96 3.79
785394.63 628552.62 4.73
785397.09 628548.27 5.56
785399.56 628543.92 6.00
785402.03 628539.57 6.47
785404.50 628535.22 6.73
785406.96 628530.87 7.09
785409.43 628526.52 6.86
785411.90 628522.17 6.57
785414.36 628517.83 6.46
785416.83 628513.48 6.33
785419.30 628509.13 6.37
785421.77 628504.78 6.44
785424.23 628500.43 5.63
785426.70 628496.08 4.70
785429.17 628491.73 3.78
785431.64 628487.38 3.05
785434.10 628483.04 2.22
785384.17 628581.18 0.43
785386.64 628576.83 1.20
785389.10 628572.48 1.92
785391.57 628568.13 2.65
785394.04 628563.78 3.37
785396.51 628559.43 4.09
785398.97 628555.08 4.90
785401.44 628550.73 5.77
785403.91 628546.39 6.20
785406.38 628542.04 6.66
785408.84 628537.69 6.94
785411.31 628533.34 7.15
785413.78 628528.99 7.36
785416.25 628524.64 6.79
785418.71 628520.29 6.62
785421.18 628515.94 6.50
785423.65 628511.60 6.39
785426.12 628507.25 6.36
785428.58 628502.90 5.56
785431.05 628498.55 4.96
785433.52 628494.20 4.27
785435.99 628489.85 3.46
785386.05 628587.99 0.06
785388.52 628583.64 0.75
785390.99 628579.29 1.44
785393.45 628574.95 2.17
785395.92 628570.60 2.93
785398.39 628566.25 3.63
785400.86 628561.90 4.35
785403.32 628557.55 5.07
785405.79 628553.20 5.94
785408.26 628548.85 6.45
785410.73 628544.50 6.69
785413.19 628540.16 7.02
785415.66 628535.81 7.27
785418.13 628531.46 7.19
785420.60 628527.11 7.13
785423.06 628522.76 6.76
785425.53 628518.41 6.60
785428.00 628514.06 6.50
785430.46 628509.71 6.23
785432.93 628505.37 5.58
785435.40 628501.02 4.74
785437.87 628496.67 3.93
785440.33 628492.32 3.17
785390.40 628590.46 0.30
785392.87 628586.11 1.07
785395.33 628581.76 1.80
785397.80 628577.41 2.47
785400.27 628573.06 3.14
785402.74 628568.72 3.89
785405.20 628564.37 4.65
785407.67 628560.02 5.33
785410.14 628555.67 5.99
785412.61 628551.32 6.47
785415.07 628546.97 6.79
785417.54 628542.62 6.81
785420.01 628538.27 6.92
785422.48 628533.93 7.05
785424.94 628529.58 6.96
785427.41 628525.23 6.64
785429.88 628520.88 6.25
785432.35 628516.53 5.91
785434.81 628512.18 5.68
785437.28 628507.83 5.25
785439.75 628503.48 4.57
785442.22 628499.14 3.87
785392.28 628597.28 0.04
785394.75 628592.93 0.66
785397.22 628588.58 1.43
785399.68 628584.23 2.16
785402.15 628579.88 2.83
785404.62 628575.53 3.50
785407.09 628571.18 4.17
785409.55 628566.83 4.84
785412.02 628562.49 5.59
785414.49 628558.14 6.30
785416.96 628553.79 6.44
785419.42 628549.44 6.58
785421.89 628545.09 6.71
785424.36 628540.74 6.85
785426.83 628536.39 6.98
785429.29 628532.04 6.79
785431.76 628527.70 6.46
785434.23 628523.35 5.95
785436.69 628519.00 5.58
785439.16 628514.65 5.19
785441.63 628510.30 4.82
785444.10 628505.95 4.27
785446.56 628501.60 3.57
785396.63 628599.74 0.37
785399.10 628595.39 1.25
785401.56 628591.05 1.84
785404.03 628586.70 2.51
785406.50 628582.35 3.19
785408.97 628578.00 3.86
785411.43 628573.65 4.53
785413.90 628569.30 5.20
785416.37 628564.95 5.85
785418.84 628560.60 6.24
785421.30 628556.26 6.38
785423.77 628551.91 6.51
785426.24 628547.56 6.64
785428.71 628543.21 6.78
785431.17 628538.86 6.91
785433.64 628534.51 6.65
785436.11 628530.16 6.29
785438.58 628525.81 5.77
785441.04 628521.47 5.26
785443.51 628517.12 4.90
785445.98 628512.77 4.42
785448.45 628508.42 3.99
785450.91 628504.07 2.77
785398.51 628606.56 0.02
785400.98 628602.21 0.91
785403.45 628597.86 1.86
785405.91 628593.51 2.34
785408.38 628589.16 2.87
785410.85 628584.82 3.55
785413.32 628580.47 4.22
785415.78 628576.12 4.87
785418.25 628571.77 5.44
785420.72 628567.42 6.03
785423.19 628563.07 6.20
785425.65 628558.72 6.31
785428.12 628554.37 6.44
785430.59 628550.03 6.57
785433.06 628545.68 6.71
785435.52 628541.33 6.84
785437.99 628536.98 6.52
785440.46 628532.63 6.11
785442.92 628528.28 5.59
785445.39 628523.93 5.08
785447.86 628519.58 4.54
785450.33 628515.24 4.13
785452.79 628510.89 3.62
785402.86 628609.03 0.40
785405.33 628604.68 1.27
785407.79 628600.33 2.04
785410.26 628595.98 2.73
785412.73 628591.63 3.36
785415.20 628587.28 3.97
785417.66 628582.93 4.56
785420.13 628578.59 5.11
785422.60 628574.24 5.67
785425.07 628569.89 6.04
785427.53 628565.54 6.20
785430.00 628561.19 6.24
785432.47 628556.84 6.37
785434.94 628552.49 6.50
785437.40 628548.14 6.64
785439.87 628543.80 6.75
785442.34 628539.45 6.42
785444.81 628535.10 5.93
785447.27 628530.75 5.42
785449.74 628526.40 4.90
785452.21 628522.05 4.39
785454.68 628517.70 3.86
785457.14 628513.35 3.39
785404.74 628615.84 0.08
785407.21 628611.49 0.82
785409.68 628607.15 1.52
785412.14 628602.80 2.21
785414.61 628598.45 2.91
785417.08 628594.10 3.57
785419.55 628589.75 4.19
785422.01 628585.40 4.82
785424.48 628581.05 5.34
785426.95 628576.70 5.85
785429.42 628572.36 6.17
785431.88 628568.01 6.25
785434.35 628563.66 6.25
785436.82 628559.31 6.30
785439.29 628554.96 6.43
785441.75 628550.61 6.56
785444.22 628546.26 6.58
785446.69 628541.91 6.26
785449.16 628537.57 5.75
785451.62 628533.22 5.24
785454.09 628528.87 4.72
785456.56 628524.52 4.21
785459.02 628520.17 3.70
785409.09 628618.31 0.39
785411.56 628613.96 1.00
785414.02 628609.61 1.69
785416.49 628605.26 2.38
785418.96 628600.92 3.08
785421.43 628596.57 3.77
785423.89 628592.22 4.38
785426.36 628587.87 5.02
785428.83 628583.52 5.54
785431.30 628579.17 6.06
785433.76 628574.82 6.29
785436.23 628570.47 6.37
785438.70 628566.13 6.32
785441.17 628561.78 6.23
785443.63 628557.43 6.36
785446.10 628553.08 6.49
785448.57 628548.73 6.40
785451.04 628544.38 6.09
785453.50 628540.03 5.57
785455.97 628535.68 5.06
785458.44 628531.34 4.55
785460.91 628526.99 4.03
785463.37 628522.64 3.55
785410.97 628625.13 0.29
785413.44 628620.78 0.81
785415.91 628616.43 1.34
785418.37 628612.08 1.92
785420.84 628607.73 2.56
785423.31 628603.38 3.25
785425.78 628599.03 3.95
785428.24 628594.69 4.61
785430.71 628590.34 5.21
785433.18 628585.99 5.80
785435.65 628581.64 6.14
785438.11 628577.29 6.41
785440.58 628572.94 6.43
785443.05 628568.59 6.38
785445.52 628564.24 6.38
785447.98 628559.90 6.29
785450.45 628555.55 6.42
785452.92 628551.20 6.29
785455.39 628546.85 5.91
785457.85 628542.50 5.39
785460.32 628538.15 4.88
785462.79 628533.80 4.38
785465.25 628529.45 3.95
785412.85 628631.94 -0.02
785415.32 628627.59 0.78
785417.79 628623.25 1.34
785420.26 628618.90 1.83
785422.72 628614.55 2.31
785425.19 628610.20 2.86
785427.66 628605.85 3.46
785430.12 628601.50 4.12
785432.59 628597.15 4.82
785435.06 628592.80 5.48
785437.53 628588.46 5.93
785439.99 628584.11 6.22
785442.46 628579.76 6.35
785444.93 628575.41 6.56
785447.40 628571.06 6.58
785449.86 628566.71 6.45
785452.33 628562.36 6.34
785454.80 628558.01 6.35
785457.27 628553.67 6.18
785459.73 628549.32 5.73
785462.20 628544.97 5.22
785464.67 628540.62 4.81
785467.14 628536.27 4.24
785469.60 628531.92 3.40
785417.20 628634.41 0.52
785419.67 628630.06 1.26
785422.14 628625.71 1.87
785424.60 628621.36 2.36
785427.07 628617.02 2.84
785429.54 628612.67 3.32
785432.01 628608.32 3.81
785434.47 628603.97 4.39
785436.94 628599.62 5.01
785439.41 628595.27 5.66
785441.88 628590.92 5.96
785444.34 628586.57 6.16
785446.81 628582.23 6.36
785449.28 628577.88 6.50
785451.75 628573.53 6.61
785454.21 628569.18 6.49
785456.68 628564.83 6.51
785459.15 628560.48 6.28
785461.62 628556.13 6.06
785464.08 628551.78 5.63
785466.55 628547.43 5.18
785469.02 628543.09 4.56
785471.49 628538.74 4.02
785473.95 628534.39 3.41
785419.08 628641.23 0.44
785421.55 628636.88 1.08
785424.02 628632.53 1.77
785426.49 628628.18 2.40
785428.95 628623.83 2.89
785431.42 628619.48 3.37
785433.89 628615.13 3.85
785436.35 628610.79 4.34
785438.82 628606.44 4.82
785441.29 628602.09 5.32
785443.76 628597.74 5.85
785446.22 628593.39 6.05
785448.69 628589.04 6.22
785451.16 628584.69 6.36
785453.63 628580.34 6.50
785456.09 628575.99 6.59
785458.56 628571.65 6.27
785461.03 628567.30 6.14
785463.50 628562.95 6.00
785465.96 628558.60 5.75
785468.43 628554.25 5.55
785470.90 628549.90 4.99
785473.37 628545.55 4.35
785475.83 628541.20 3.63
785420.96 628648.04 0.42
785423.43 628643.69 0.77
785425.90 628639.35 1.55
785428.37 628635.00 2.32
785430.83 628630.65 2.95
785433.30 628626.30 3.42
785435.77 628621.95 3.90
785438.24 628617.60 4.38
785440.70 628613.25 4.87
785443.17 628608.90 5.32
785445.64 628604.56 5.74
785448.11 628600.21 5.98
785450.57 628595.86 6.12
785453.04 628591.51 6.25
785455.51 628587.16 6.39
785457.98 628582.81 6.53
785460.44 628578.46 6.45
785462.91 628574.11 6.08
785465.38 628569.76 5.80
785467.85 628565.42 5.63
785470.31 628561.07 5.29
785472.78 628556.72 5.00
785475.25 628552.37 4.60
785477.72 628548.02 3.72
785480.18 628543.67 2.85
785425.31 628650.51 0.78
785427.78 628646.16 1.27
785430.25 628641.81 2.10
785432.72 628637.46 2.87
785435.18 628633.12 3.51
785437.65 628628.77 3.95
785440.12 628624.42 4.37
785442.58 628620.07 4.76
785445.05 628615.72 5.15
785447.52 628611.37 5.53
785449.99 628607.02 5.82
785452.45 628602.67 6.01
785454.92 628598.32 6.14
785457.39 628593.98 6.28
785459.86 628589.63 6.42
785462.32 628585.28 6.55
785464.79 628580.93 6.29
785467.26 628576.58 5.89
785469.73 628572.23 5.50
785472.19 628567.88 5.26
785474.66 628563.53 4.92
785477.13 628559.19 4.66
785479.60 628554.84 4.22
785482.06 628550.49 3.56
785427.19 628657.33 0.66
785429.66 628652.98 1.24
785432.13 628648.63 1.94
785434.60 628644.28 2.53
785437.06 628639.93 3.08
785439.53 628635.58 3.66
785442.00 628631.23 4.25
785444.47 628626.88 4.65
785446.93 628622.54 5.03
785449.40 628618.19 5.45
785451.87 628613.84 5.87
785454.34 628609.49 5.92
785456.80 628605.14 6.03
785459.27 628600.79 6.17
785461.74 628596.44 6.31
785464.21 628592.09 6.44
785466.67 628587.75 6.42
785469.14 628583.40 6.09
785471.61 628579.05 5.70
785474.08 628574.70 5.30
785476.54 628570.35 5.06
785479.01 628566.00 4.67
785481.48 628561.65 4.22
785483.95 628557.30 3.79
785486.41 628552.96 2.80
785431.54 628659.79 0.95
785434.01 628655.44 1.53
785436.48 628651.10 2.11
785438.95 628646.75 2.69
785441.41 628642.40 3.27
785443.88 628638.05 3.85
785446.35 628633.70 4.43
785448.82 628629.35 4.88
785451.28 628625.00 5.27
785453.75 628620.65 5.62
785456.22 628616.31 5.90
785458.68 628611.96 6.08
785461.15 628607.61 6.03
785463.62 628603.26 6.19
785466.09 628598.91 6.33
785468.55 628594.56 6.47
785471.02 628590.21 6.30
785473.49 628585.86 5.90
785475.96 628581.52 5.51
785478.42 628577.17 5.11
785480.89 628572.82 4.74
785483.36 628568.47 4.38
785485.83 628564.12 3.84
785488.29 628559.77 3.47
785433.42 628666.61 0.93
785435.89 628662.26 1.32
785438.36 628657.91 1.72
785440.83 628653.56 2.29
785443.29 628649.21 2.87
785445.76 628644.87 3.45
785448.23 628640.52 4.03
785450.70 628636.17 4.61
785453.16 628631.82 5.02
785455.63 628627.47 5.60
785458.10 628623.12 5.81
785460.57 628618.77 5.96
785463.03 628614.42 6.13
785465.50 628610.08 6.20
785467.97 628605.73 6.22
785470.44 628601.38 6.36
785472.90 628597.03 6.44
785475.37 628592.68 6.13
785477.84 628588.33 5.71
785480.31 628583.98 5.31
785482.77 628579.63 4.92
785485.24 628575.29 4.53
785487.71 628570.94 4.16
785490.18 628566.59 3.69
785492.64 628562.24 2.64
785435.31 628673.43 0.72
785437.77 628669.08 1.34
785440.24 628664.73 1.74
785442.71 628660.38 2.13
785445.18 628656.03 2.53
785447.64 628651.68 3.06
785450.11 628647.33 3.64
785452.58 628642.98 4.22
785455.05 628638.64 4.80
785457.51 628634.29 5.23
785459.98 628629.94 5.64
785462.45 628625.59 5.99
785464.91 628621.24 6.09
785467.38 628616.89 6.18
785469.85 628612.54 6.30
785472.32 628608.19 6.25
785474.78 628603.85 6.38
785477.25 628599.50 6.24
785479.72 628595.15 5.91
785482.19 628590.80 5.52
785484.65 628586.45 5.12
785487.12 628582.10 4.73
785489.59 628577.75 4.34
785492.06 628573.40 3.97
785494.52 628569.06 3.44
785439.65 628675.89 1.16
785442.12 628671.54 1.74
785444.59 628667.20 2.16
785447.06 628662.85 2.55
785449.52 628658.50 2.95
785451.99 628654.15 3.33
785454.46 628649.80 3.82
785456.93 628645.45 4.40
785459.39 628641.10 4.98
785461.86 628636.75 5.44
785464.33 628632.41 5.81
785466.80 628628.06 6.00
785469.26 628623.71 6.12
785471.73 628619.36 6.20
785474.20 628615.01 6.40
785476.67 628610.66 6.27
785479.13 628606.31 6.41
785481.60 628601.96 6.15
785484.07 628597.62 5.72
785486.54 628593.27 5.33
785489.00 628588.92 4.93
785491.47 628584.57 4.54
785493.94 628580.22 4.15
785496.41 628575.87 3.75
785498.87 628571.52 2.54
785441.54 628682.71 0.93
785444.00 628678.36 1.60
785446.47 628674.01 2.14
785448.94 628669.66 2.59
785451.41 628665.31 2.98
785453.87 628660.97 3.36
785456.34 628656.62 3.75
785458.81 628652.27 4.14
785461.28 628647.92 4.61
785463.74 628643.57 5.17
785466.21 628639.22 5.66
785468.68 628634.87 5.89
785471.15 628630.52 6.05
785473.61 628626.18 6.22
785476.08 628621.83 6.33
785478.55 628617.48 6.46
785481.01 628613.13 6.51
785483.48 628608.78 6.26
785485.95 628604.43 5.96
785488.42 628600.08 5.53
785490.88 628595.73 5.13
785493.35 628591.39 4.74
785495.82 628587.04 4.33
785498.29 628582.69 3.92
785500.75 628578.34 2.88
785443.42 628689.53 0.68
785445.88 628685.18 1.38
785448.35 628680.83 2.05
785450.82 628676.48 2.55
785453.29 628672.13 3.01
785455.75 628667.78 3.41
785458.22 628663.43 3.80
785460.69 628659.08 4.18
785463.16 628654.74 4.55
785465.62 628650.39 4.94
785468.09 628646.04 5.42
785470.56 628641.69 5.84
785473.03 628637.34 5.97
785475.49 628632.99 6.08
785477.96 628628.64 6.21
785480.43 628624.29 6.33
785482.90 628619.95 6.45
785485.36 628615.60 6.38
785487.83 628611.25 6.01
785490.30 628606.90 5.75
785492.77 628602.55 5.32
785495.23 628598.20 4.93
785497.70 628593.85 4.55
785500.17 628589.50 4.14
785502.64 628585.16 3.20
785445.30 628696.34 0.55
785447.77 628691.99 1.24
785450.23 628687.64 1.93
785452.70 628683.30 2.59
785455.17 628678.95 2.96
785457.64 628674.60 3.42
785460.10 628670.25 3.85
785462.57 628665.90 4.23
785465.04 628661.55 4.62
785467.51 628657.20 5.00
785469.97 628652.85 5.35
785472.44 628648.51 5.73
785474.91 628644.16 5.90
785477.38 628639.81 6.02
785479.84 628635.46 6.15
785482.31 628631.11 6.27
785484.78 628626.76 6.39
785487.24 628622.41 6.43
785489.71 628618.06 6.12
785492.18 628613.72 5.74
785494.65 628609.37 5.37
785497.11 628605.02 4.99
785499.58 628600.67 4.61
785502.05 628596.32 4.04
785504.52 628591.97 3.22
785506.98 628587.62 2.25
785449.65 628698.81 1.11
785452.11 628694.46 1.79
785454.58 628690.11 2.46
785457.05 628685.76 3.14
785459.52 628681.41 3.77
785461.98 628677.07 3.88
785464.45 628672.72 4.28
785466.92 628668.37 4.67
785469.39 628664.02 5.05
785471.85 628659.67 5.44
785474.32 628655.32 5.74
785476.79 628650.97 5.81
785479.26 628646.62 5.96
785481.72 628642.28 6.08
785484.19 628637.93 6.21
785486.66 628633.58 6.33
785489.13 628629.23 6.45
785491.59 628624.88 6.21
785494.06 628620.53 5.83
785496.53 628616.18 5.44
785499.00 628611.83 4.98
785501.46 628607.49 4.57
785503.93 628603.14 3.99
785506.40 628598.79 3.40
785508.87 628594.44 2.57
785451.53 628705.63 1.05
785454.00 628701.28 1.77
785456.46 628696.93 2.35
785458.93 628692.58 2.94
785461.40 628688.23 3.52
785463.87 628683.88 4.10
785466.33 628679.53 4.53
785468.80 628675.18 4.71
785471.27 628670.84 5.00
