785003.65 628336.93 5.69
785003.23 628337.93 5.82
785002.78 628338.96 5.92
785002.36 628339.88 6.04
785001.91 628340.81 6.12
785001.31 628341.97 6.17
785000.89 628342.90 6.21
785000.50 628343.83 6.24
785000.06 628344.77 6.25
784999.55 628345.72 6.27
784999.07 628346.64 6.33
784998.64 628347.56 6.40
784998.25 628348.49 6.44
784997.88 628349.42 6.47
784997.40 628350.56 6.50
784996.93 628351.67 6.53
784996.24 628353.41 6.47
784995.86 628354.49 6.52
784995.31 628356.05 6.51
784994.94 628357.15 6.51
784994.60 628358.27 6.53
784994.29 628359.37 6.59
784994.19 628360.40 6.64
784993.74 628361.38 6.69
784993.56 628362.45 6.76
784993.19 628363.63 6.82
784992.96 628364.70 6.85
784992.71 628366.03 6.84
784992.73 628368.06 6.73
784992.76 628369.18 6.63
784992.39 628370.24 6.52
784992.37 628371.28 6.32
784992.17 628372.40 6.15
784992.13 628373.59 6.05
784991.96 628374.76 6.15
784991.57 628376.11 6.09
784991.32 628377.23 5.96
784991.11 628378.28 5.85
784990.95 628379.39 5.72
784990.66 628380.38 5.59
784990.29 628381.36 5.43
784989.80 628382.30 5.31
785032.36 628336.59 1.97
785033.36 628336.75 1.91
785035.25 628337.42 1.89
785036.26 628337.84 1.92
785037.99 628338.45 1.89
785039.00 628338.93 1.93
785039.82 628339.66 2.17
785040.72 628340.19 2.34
785041.87 628340.50 2.19
785042.90 628341.07 2.31
785043.52 628341.95 2.41
785045.44 628342.46 2.36
785046.48 628342.96 2.40
785047.30 628343.71 2.45
785048.33 628344.52 2.42
785049.15 628345.32 2.45
785050.02 628345.82 2.53
785050.81 628346.67 2.89
785051.65 628347.46 2.99
785052.79 628347.90 3.02
785053.38 628348.72 3.20
785054.20 628349.61 3.40
785054.51 628350.63 3.84
785054.77 628351.70 4.14
785055.04 628352.81 4.48
785055.23 628353.99 4.79
785055.27 628355.15 4.99
785055.17 628356.22 5.23
785054.98 628357.24 5.35
785054.63 628358.47 5.48
785054.18 628359.54 5.54
785053.60 628360.43 5.62
785052.73 628361.59 5.77
785051.94 628362.46 5.94
785051.08 628363.21 6.17
785050.19 628363.85 6.24
785049.31 628364.52 6.34
785048.46 628365.17 6.30
785047.24 628366.15 6.28
785046.43 628366.89 6.28
785045.70 628367.65 6.28
785044.96 628368.57 6.28
785043.99 628370.11 6.26
785043.47 628371.13 6.36
785043.01 628372.12 6.45
785042.59 628373.17 6.50
785042.19 628374.28 6.56
785041.82 628375.37 6.64
785041.46 628376.48 6.70
785040.16 628380.99 6.84
785039.83 628382.09 6.92
785039.56 628383.16 6.95
785039.37 628384.21 6.95
785039.20 628385.26 6.98
785039.05 628386.32 7.01
785039.03 628387.34 6.99
785039.03 628388.35 6.91
785039.03 628389.38 6.81
785039.08 628390.57 6.73
785039.06 628391.71 6.68
785039.11 628392.87 6.62
785039.22 628394.05 6.53
785039.24 628395.14 6.42
785039.34 628396.27 6.30
785039.40 628397.36 6.21
785039.30 628398.51 6.13
785039.16 628399.57 5.95
785039.40 628400.61 5.72
785039.58 628401.92 5.62
785036.34 628404.84 4.43
785037.43 628406.07 4.34
785038.72 628406.59 4.36
785039.67 628407.22 4.44
785040.72 628407.49 4.42
785041.77 628407.86 4.47
785042.79 628408.21 4.54
785043.90 628408.28 4.56
785045.01 628408.76 4.61
785053.37 628408.82 5.05
785054.50 628409.09 5.15
785055.61 628409.08 5.26
785056.71 628409.24 5.46
785057.95 628409.07 5.56
785058.91 628408.51 5.60
785059.96 628408.19 5.76
785061.01 628408.96 5.82
785061.52 628408.03 5.98
785061.90 628407.05 6.07
785062.40 628406.13 6.23
785062.92 628405.07 6.43
785063.26 628404.01 6.54
785063.36 628402.87 6.66
785063.21 628401.87 6.75
785063.35 628400.79 6.83
785063.49 628399.47 6.88
785063.59 628398.37 6.90
785063.73 628397.22 6.94
785063.97 628395.10 6.90
785064.10 628393.88 6.90
785064.26 628392.50 6.72
785065.22 628387.40 6.60
785065.43 628386.35 6.60
785065.74 628385.20 6.63
785066.02 628383.85 6.60
785066.32 628382.38 6.58
785066.54 628381.36 6.49
785066.80 628379.94 6.32
785066.86 628378.80 6.18
785066.98 628377.72 6.24
785067.02 628376.63 6.19
785066.99 628375.52 6.31
785066.73 628373.57 6.31
785066.46 628372.50 6.43
785066.25 628371.38 6.36
785065.85 628369.55 6.26
785065.68 628368.48 6.21
785065.29 628367.31 6.13
785065.03 628366.25 6.02
785064.79 628364.89 5.86
785064.58 628363.76 5.66
785064.42 628362.63 5.51
785064.37 628361.50 5.33
785064.40 628360.43 5.20
785064.63 628359.41 4.99
785064.97 628358.34 4.67
785065.36 628357.40 4.37
785065.78 628356.43 4.17
785072.29 628356.24 3.16
785073.27 628356.01 3.01
785074.89 628356.45 3.03
785076.33 628356.44 2.79
785077.41 628356.32 2.59
785078.76 628356.21 2.46
785079.75 628355.76 2.44
785080.76 628355.90 2.40
785081.77 628356.46 2.41
785082.71 628356.85 2.41
785083.75 628356.97 2.39
785085.25 628357.25 2.35
785086.89 628357.73 2.35
785087.93 628358.09 2.41
785089.39 628358.33 2.42
785090.63 628358.42 2.33
785092.41 628359.57 2.33
785094.27 628359.99 2.30
785100.51 628363.25 2.64
785101.44 628364.22 2.80
785102.11 628365.14 2.96
785102.66 628366.09 3.08
785103.10 628367.21 3.36
785103.35 628368.34 3.62
785103.41 628369.38 4.04
785103.34 628370.38 4.73
785103.28 628371.48 5.14
785103.04 628372.49 5.29
785102.65 628373.54 5.60
785102.17 628374.62 5.79
785101.59 628375.70 5.92
785101.15 628376.66 6.02
785100.72 628377.68 6.16
785099.89 628378.56 6.24
785098.95 628379.34 6.36
785098.10 628380.20 6.42
785097.21 628381.02 6.46
785096.21 628381.70 6.53
785095.17 628382.39 6.52
785093.92 628383.58 6.49
785093.24 628384.35 6.50
785092.09 628385.78 6.51
785091.47 628386.60 6.54
785090.88 628387.46 6.58
785090.32 628388.35 6.60
785089.70 628389.40 6.60
785089.16 628390.45 6.64
785088.71 628391.51 6.73
785088.27 628392.79 6.72
785088.00 628393.85 6.77
785087.82 628394.93 6.80
785087.69 628396.02 6.82
785087.59 628397.09 6.84
785087.49 628398.18 6.87
785087.44 628399.25 6.89
785087.47 628400.40 6.94
785087.49 628401.70 6.96
785087.39 628402.72 7.00
785087.42 628404.71 6.97
785087.41 628405.84 6.91
785087.46 628407.20 6.90
785087.40 628408.25 6.87
785087.41 628409.40 6.64
785087.58 628410.52 6.47
785087.31 628411.53 6.31
785087.72 628412.46 6.17
785087.58 628413.55 6.07
785087.49 628414.73 5.99
785087.37 628415.82 5.86
785087.17 628416.86 5.74
785087.09 628417.94 5.60
785091.93 628423.57 4.76
785092.89 628423.93 4.73
785094.51 628424.26 4.75
785096.15 628425.03 4.70
785097.17 628425.54 4.76
785098.72 628426.15 4.78
785100.55 628426.19 4.72
785104.54 628426.49 4.78
785105.55 628426.95 4.88
785106.57 628426.43 4.93
785107.67 628426.53 5.07
785108.73 628425.83 5.28
785109.42 628425.08 5.48
785110.16 628424.40 5.70
785110.60 628423.38 5.86
785110.68 628422.24 6.00
785110.88 628421.05 6.17
785111.03 628419.93 6.38
785110.83 628418.79 6.50
785110.38 628417.76 6.63
785110.17 628416.67 6.77
785109.98 628415.61 6.84
785109.82 628414.55 6.90
785109.64 628413.06 6.81
785109.45 628411.92 6.89
785109.25 628410.71 6.90
785108.85 628409.51 6.94
785108.56 628408.38 6.96
785108.72 628407.37 6.96
785108.76 628405.46 6.89
785108.73 628404.41 6.85
785108.71 628402.97 6.85
785108.79 628401.87 6.76
785109.01 628400.75 6.73
785109.28 628398.83 6.74
785109.49 628397.69 6.68
785109.70 628396.52 6.55
785109.93 628395.33 6.55
785110.38 628393.43 6.44
785110.66 628392.26 6.46
785111.08 628390.87 6.52
785111.61 628389.22 6.50
785112.06 628388.13 6.58
785112.57 628387.08 6.65
785113.50 628385.51 6.61
785114.18 628384.64 6.57
785114.92 628383.89 6.50
785115.69 628383.22 6.38
785116.65 628382.53 6.26
785117.62 628382.05 6.15
785118.64 628381.73 6.01
785119.57 628381.31 5.93
785120.64 628381.01 5.80
785121.78 628380.59 5.72
785122.93 628380.27 5.63
785124.02 628380.03 5.53
785125.13 628379.78 5.40
785126.28 628379.61 5.28
785127.99 628379.45 5.20
785129.14 628379.40 5.33
785130.71 628379.27 5.09
785131.83 628379.49 4.99
785133.12 628379.46 5.14
785134.15 628379.59 4.93
785135.32 628379.66 4.74
785152.55 628380.06 2.86
785154.14 628381.23 3.00
785154.98 628381.89 3.25
785155.90 628382.86 3.63
785156.50 628383.71 4.09
785156.96 628384.68 4.42
785157.29 628385.69 4.67
785157.48 628386.75 4.98
785157.51 628388.06 5.20
785157.34 628389.05 5.48
785157.03 628390.14 5.74
785156.72 628391.12 6.01
785156.13 628392.15 6.28
785155.19 628393.10 6.51
785154.33 628393.76 6.65
785153.41 628394.37 6.71
785152.30 628394.88 6.86
785151.36 628395.36 6.96
785150.39 628395.83 6.98
785149.47 628396.37 7.00
785148.06 628397.13 6.99
785147.07 628397.54 7.02
785146.09 628397.97 7.05
785144.44 628398.83 7.07
785143.37 628399.53 7.07
785142.59 628400.16 7.09
785141.42 628401.39 6.97
785140.65 628402.55 6.94
785139.42 628406.39 6.97
785139.22 628408.07 6.95
785139.09 628409.26 6.99
785139.01 628410.44 7.01
785138.89 628411.64 7.03
785138.73 628412.83 7.05
785138.55 628414.23 7.00
785138.32 628415.33 7.03
785137.97 628416.79 7.05
785137.63 628418.50 7.04
785137.51 628419.50 6.95
785137.44 628420.82 6.93
785137.72 628422.06 6.83
785138.18 628422.96 6.74
785138.93 628423.78 6.64
785140.49 628424.70 6.54
785142.31 628424.82 6.49
785143.84 628424.47 6.20
785144.90 628424.21 6.29
785145.96 628423.93 6.40
785147.01 628423.84 6.51
785148.11 628423.80 6.54
785149.30 628424.04 6.54
785150.33 628424.48 6.54
785151.23 628425.02 6.54
785152.05 628425.70 6.51
785152.89 628426.55 6.36
785153.60 628427.40 6.29
785154.72 628428.42 6.20
785155.52 628429.04 6.27
785156.53 628429.51 6.33
785157.63 628429.71 6.20
785158.64 628429.46 6.29
785159.44 628428.83 6.42
785159.95 628427.65 6.53
785160.33 628426.62 6.72
785160.41 628425.60 6.74
785160.54 628424.57 6.76
785160.57 628423.53 6.81
785160.73 628422.39 6.93
785160.84 628421.27 7.01
785160.89 628420.23 7.06
785160.96 628419.17 7.10
785161.13 628417.41 7.07
785161.27 628416.23 6.97
785161.48 628414.30 6.97
785161.63 628413.20 6.95
785161.87 628411.87 6.91
785162.07 628410.84 6.93
785162.34 628409.61 6.76
785162.58 628408.63 6.77
785162.84 628407.62 6.80
785163.11 628406.65 6.89
785163.48 628405.46 7.04
785163.97 628404.13 7.02
785164.43 628403.13 7.04
785165.72 628402.15 7.05
785166.31 628401.11 6.83
785166.97 628400.13 6.67
785167.62 628399.19 6.55
785168.27 628398.33 6.49
785168.89 628397.44 6.41
785169.48 628396.53 6.29
785170.09 628395.69 6.19
785170.84 628394.73 6.01
785171.57 628393.79 5.79
785172.40 628392.97 5.58
785173.19 628392.29 5.36
785174.02 628391.68 5.07
785174.88 628391.14 4.87
785175.91 628390.67 4.63
785177.04 628390.33 4.68
785178.27 628390.10 4.51
785199.61 628395.83 4.73
785200.73 628396.59 4.83
785201.39 628397.55 5.04
785202.01 628398.50 5.30
785202.45 628399.48 5.55
785202.80 628400.45 5.76
785203.00 628401.44 5.95
785202.87 628402.69 6.15
785202.56 628403.82 6.31
785201.98 628405.06 6.43
785201.35 628405.95 6.53
785200.65 628406.76 6.63
785199.90 628407.47 6.69
785199.06 628408.15 6.75
785198.20 628408.86 6.86
785197.37 628409.66 6.90
785196.50 628410.50 6.97
785195.70 628411.23 7.02
785194.88 628411.97 7.07
785194.07 628412.73 7.11
785193.08 628413.65 7.14
785192.13 628414.64 6.95
785191.18 628415.62 6.85
785190.41 628416.46 6.89
785189.44 628417.62 6.94
785188.25 628419.29 6.99
785187.49 628420.39 7.01
785186.98 628421.44 7.01
785186.53 628422.50 7.04
785185.90 628424.22 7.06
785185.64 628425.19 7.07
785185.36 628426.34 7.06
785185.07 628427.69 7.03
785184.80 628429.02 7.02
785184.53 628430.63 6.98
785184.26 628431.81 6.92
785183.95 628433.14 6.80
785183.65 628434.18 6.73
785183.31 628435.30 6.62
785183.13 628436.37 6.33
785183.25 628437.37 6.20
785183.13 628438.46 6.06
785183.03 628439.61 5.92
785183.36 628440.75 5.86
785183.49 628441.87 5.77
785183.41 628442.92 5.69
785183.50 628443.93 5.59
785184.22 628448.11 5.03
785183.89 628449.10 4.88
785183.56 628450.14 4.47
785214.64 628471.46 0.75
785215.70 628471.11 0.99
785216.57 628470.58 1.23
785217.53 628470.04 1.58
785218.28 628469.32 1.87
785219.79 628466.53 2.90
785220.07 628465.41 3.28
785220.24 628464.31 3.56
785220.33 628463.17 3.80
785220.44 628462.07 4.13
785220.62 628460.84 4.51
785220.73 628459.83 4.82
785220.81 628458.80 4.97
785220.87 628457.75 5.10
785221.10 628456.68 5.21
785221.37 628455.64 5.31
785221.70 628454.66 5.42
785222.08 628453.72 5.57
785222.50 628452.81 5.79
785223.13 628451.84 5.97
785223.85 628450.89 6.10
785224.62 628450.09 6.21
785225.38 628449.33 6.27
785226.25 628448.54 6.36
785227.09 628447.77 6.42
785227.94 628446.97 6.52
785228.65 628446.17 6.57
785229.37 628445.27 6.65
785229.92 628444.41 6.67
785230.45 628443.42 6.76
785230.98 628442.30 6.84
785231.89 628439.87 6.89
785232.34 628438.61 6.94
785232.67 628437.63 6.97
785233.02 628436.58 7.03
785233.39 628435.54 7.05
785234.04 628433.84 7.02
785234.44 628432.81 7.10
785234.82 628431.82 7.13
785235.20 628430.84 7.15
785235.61 628429.88 7.22
785236.00 628428.94 7.24
785236.39 628428.01 7.26
785236.73 628427.04 7.18
785237.23 628425.82 7.09
785237.75 628424.66 6.94
785238.04 628423.61 6.82
785238.36 628422.63 6.78
785238.94 628421.12 6.76
785239.42 628419.97 6.76
785240.31 628417.93 6.74
785240.74 628417.01 6.55
785241.20 628416.06 6.42
785241.68 628415.14 6.32
785242.15 628414.23 6.10
785242.64 628413.32 5.97
785243.50 628411.83 5.87
785244.19 628410.71 5.75
785244.90 628409.66 5.72
785245.67 628408.77 5.02
785246.40 628407.82 4.94
785246.81 628406.90 4.86
785247.14 628405.87 4.89
785248.43 628405.68 4.36
785249.15 628404.76 4.26
785250.62 628403.73 4.00
785250.99 628402.55 3.83
785292.18 628412.41 2.05
785293.00 628413.22 2.32
785293.69 628414.31 2.72
785294.10 628415.52 3.42
785294.28 628416.62 3.95
785294.29 628417.78 4.36
785293.99 628418.85 4.80
785293.75 628419.94 5.11
785293.44 628420.96 5.45
785293.00 628421.97 5.60
785292.43 628423.12 5.81
785292.01 628424.14 5.98
785291.52 628425.19 6.15
785290.97 628426.27 6.28
785290.34 628427.41 6.39
785289.68 628428.58 6.47
785288.97 628429.78 6.52
785288.23 628431.01 6.58
785287.47 628432.27 6.61
785286.75 628433.56 6.65
785286.05 628434.85 6.70
785285.41 628436.12 6.75
785284.80 628437.40 6.80
785284.22 628438.68 6.90
785283.73 628439.98 7.04
785283.27 628441.28 7.17
785282.88 628442.55 7.24
785282.52 628443.81 7.29
785282.18 628445.07 7.27
785281.93 628446.33 7.26
785281.71 628447.59 7.20
785281.52 628448.88 7.14
785281.34 628450.14 7.07
785281.17 628451.39 7.04
785280.99 628452.68 6.99
785280.80 628453.98 6.96
785280.62 628455.26 6.91
785280.42 628456.52 6.86
785280.20 628457.76 6.81
785279.93 628458.96 6.74
785279.64 628460.14 6.67
785279.31 628461.25 6.62
785278.96 628462.30 6.56
785278.59 628463.32 6.52
785278.00 628464.56 6.47
785277.09 628466.30 6.35
785276.52 628467.33 6.20
785275.91 628468.34 6.09
785275.35 628469.30 5.87
785274.85 628470.20 5.63
785274.35 628471.08 5.45
785273.78 628472.15 5.22
785273.22 628473.20 4.99
785272.80 628474.21 4.79
785272.53 628475.26 4.64
785272.28 628476.37 4.54
785272.17 628477.48 4.34
785272.10 628478.56 4.12
785272.04 628479.62 3.92
785272.07 628480.62 3.68
785272.11 628481.63 3.54
785272.23 628482.65 3.37
785272.43 628483.66 3.13
785272.67 628484.98 2.85
785273.02 628486.12 2.53
785273.38 628487.06 2.30
785273.70 628488.18 2.06
785274.22 628489.12 1.83
785274.05 628490.21 1.63
785274.43 628491.22 1.39
785299.37 628511.15 0.02
785300.40 628511.05 0.13
785301.43 628510.88 0.29
785302.46 628510.60 0.41
785303.47 628510.26 0.57
785304.64 628509.70 0.79
785305.50 628509.10 0.99
785306.29 628508.32 1.21
785306.95 628507.43 1.44
785307.41 628506.43 1.67
785307.87 628505.27 1.94
785308.23 628504.32 2.18
785308.46 628503.27 2.40
785308.75 628501.80 2.74
785308.96 628500.65 3.00
785309.17 628499.44 3.27
785309.40 628498.20 3.62
785309.64 628496.94 3.87
785309.92 628495.68 4.09
785310.21 628494.42 4.37
785310.56 628493.17 4.63
785310.94 628491.92 4.85
785311.35 628490.70 5.07
785311.80 628489.53 5.19
785312.27 628488.39 5.30
785312.88 628487.34 5.55
785313.53 628486.35 5.63
785314.20 628485.41 5.81
785314.94 628484.62 5.98
785315.71 628483.88 6.07
785316.56 628483.19 6.12
785319.14 628481.36 6.41
785320.02 628480.84 6.48
785320.91 628480.29 6.53
785321.79 628479.74 6.58
785322.68 628479.18 6.61
785323.52 628478.59 6.66
785324.34 628477.99 6.75
785325.41 628477.09 6.84
785326.26 628476.37 6.90
785327.09 628475.62 7.04
785327.84 628474.72 7.08
785328.57 628473.75 7.11
785329.52 628472.36 7.12
785330.21 628471.32 7.16
785331.10 628469.90 7.27
785331.74 628468.81 7.33
785332.33 628467.65 7.32
785332.91 628466.49 7.41
785333.46 628465.32 7.34
785334.02 628464.17 7.29
785334.56 628463.01 7.13
785335.02 628461.83 7.03
785335.44 628460.64 6.97
785335.82 628459.47 6.90
785336.50 628457.57 6.86
785336.84 628456.44 6.78
785337.17 628455.32 6.69
785337.51 628454.20 6.56
785337.97 628452.73 6.47
785338.31 628451.65 6.36
785338.62 628450.54 6.21
785338.95 628449.47 6.00
785339.40 628448.09 5.78
785339.88 628446.74 5.57
785340.27 628445.78 5.44
785340.68 628444.85 5.30
785341.23 628443.71 5.16
785341.79 628442.63 5.05
785342.36 628441.63 4.93
785342.91 628440.70 4.83
785343.44 628439.83 4.73
785344.01 628438.92 4.64
785344.69 628437.88 4.50
785345.28 628437.01 4.31
785345.95 628436.04 4.05
785346.50 628435.12 3.83
785347.23 628434.25 3.47
785348.13 628433.62 3.33
785348.95 628432.75 3.09
785349.76 628432.04 2.86
785350.59 628431.36 2.68
785351.48 628430.72 2.37
785353.94 628429.46 1.64
785354.99 628429.08 1.32
785356.01 628428.64 1.08
785357.17 628428.58 0.75
785358.10 628427.99 0.59
785359.19 628428.13 0.37
785360.20 628428.35 0.27
785361.34 628428.41 0.20
785362.38 628428.86 0.18
785363.31 628429.29 0.14
785364.20 628429.83 0.11
785365.79 628430.67 0.13
785366.65 628431.38 0.29
785367.44 628432.12 0.51
785368.24 628432.88 0.71
785368.96 628433.61 0.85
785369.76 628434.37 1.19
785370.79 628435.14 1.24
785372.02 628435.83 1.16
785373.14 628436.47 1.08
785374.43 628437.03 0.96
785375.44 628437.44 0.89
785376.46 628437.81 0.83
785377.63 628438.18 0.78
785378.71 628438.56 0.72
785379.86 628439.00 0.67
785380.76 628439.61 0.64
785381.76 628439.91 0.59
785383.04 628440.32 0.62
785384.08 628440.73 0.61
785385.09 628441.14 0.70
785386.09 628441.58 0.83
785387.07 628442.03 0.89
785388.04 628442.51 0.99
785389.02 628443.05 1.09
785389.94 628443.65 1.31
785390.94 628444.33 1.54
785391.82 628444.98 1.88
785392.70 628445.72 2.25
785393.61 628446.51 2.59
785394.46 628447.39 2.94
785395.26 628448.35 3.31
785395.91 628449.16 3.57
785396.51 628450.04 3.86
785397.07 628450.97 4.14
785397.63 628452.17 4.51
785397.96 628453.17 4.78
785398.20 628454.18 4.97
785398.32 628455.22 5.14
785398.32 628456.25 5.22
785398.17 628457.26 5.41
785397.68 628458.75 5.46
785397.23 628459.69 5.47
785396.65 628460.62 5.55
785395.98 628461.52 5.68
785395.28 628462.42 5.80
785394.51 628463.30 5.94
785393.66 628464.17 6.09
785392.77 628465.09 6.13
785391.85 628466.03 6.15
785390.93 628466.96 6.09
785390.00 628467.91 6.04
785389.11 628468.88 6.08
785388.06 628470.11 6.05
785387.28 628471.14 6.05
785386.55 628472.23 6.08
785385.88 628473.38 6.16
785385.42 628474.27 6.26
785384.95 628475.18 6.37
785384.47 628476.10 6.46
785384.03 628477.06 6.54
785383.59 628478.02 6.58
785383.15 628478.99 6.60
785382.69 628479.93 6.71
785382.21 628480.86 6.78
785381.72 628481.77 6.86
785381.22 628482.66 6.96
785380.68 628483.53 6.99
785380.12 628484.39 7.04
785379.54 628485.25 7.09
785378.72 628486.26 7.16
785377.66 628487.48 7.25
785376.80 628488.41 7.28
785375.96 628489.31 7.29
785375.14 628490.18 7.34
785374.34 628491.05 7.34
785373.50 628491.91 7.38
785372.69 628492.77 7.38
785371.93 628493.61 7.37
785371.03 628494.66 7.29
785370.34 628495.48 7.21
785369.44 628496.68 7.19
785368.78 628497.66 7.15
785368.20 628498.63 7.10
785367.69 628499.62 7.02
785367.26 628500.65 6.96
785366.85 628501.69 6.91
785366.48 628502.71 6.84
785366.09 628503.90 6.77
785365.73 628505.04 6.58
785365.33 628506.14 6.45
785365.02 628507.20 6.28
785364.68 628508.23 6.16
785364.36 628509.28 5.98
785364.06 628510.35 5.82
785363.77 628511.37 5.69
785363.50 628512.36 5.59
785362.91 628514.61 5.35
785362.69 628515.74 5.16
785362.45 628516.99 4.96
785362.25 628518.12 4.80
785362.09 628519.26 4.61
785361.90 628520.38 4.40
785361.68 628521.44 4.19
785361.46 628522.49 4.04
785361.28 628523.52 3.85
785361.12 628524.57 3.73
785361.01 628525.69 3.56
785361.00 628526.79 3.44
785360.98 628527.88 3.27
785360.98 628528.95 3.15
785361.08 628530.51 3.03
785361.17 628531.56 2.97
785361.33 628532.57 2.79
785361.51 628533.82 2.67
785361.57 628534.88 2.62
785361.64 628535.89 2.45
785361.60 628537.00 2.38
785361.63 628538.00 2.32
785361.73 628539.10 2.25
785361.97 628540.13 2.15
785362.27 628541.14 2.06
785370.07 628567.76 -0.04
785370.87 628568.48 -0.04
785371.97 628568.89 0.06
785373.16 628568.98 0.22
785374.24 628568.78 0.47
785375.27 628568.54 0.65
785376.24 628568.06 0.93
785377.11 628567.39 1.51
785377.91 628566.66 1.69
785378.55 628565.73 1.81
785379.40 628564.84 1.91
785380.25 628564.08 2.00
785380.86 628563.17 2.09
785381.50 628562.21 2.19
785382.25 628561.20 2.30
785382.78 628560.19 2.42
785383.39 628559.39 2.56
785384.00 628558.57 2.72
785384.62 628557.73 2.84
785385.26 628556.89 3.04
785385.93 628556.04 3.24
785386.77 628554.94 3.49
785387.46 628554.11 3.65
785388.17 628553.31 3.87
785388.90 628552.52 4.08
785389.63 628551.76 4.27
785390.38 628551.02 4.53
785391.17 628550.27 4.72
785391.92 628549.54 4.86
785392.70 628548.83 5.05
785393.51 628548.11 5.20
785394.59 628547.21 5.37
785395.70 628546.30 5.48
785396.59 628545.62 5.69
785397.49 628544.97 5.83
785398.35 628544.35 5.97
785399.20 628543.74 6.01
785401.06 628542.45 6.23
785401.90 628541.90 6.32
785403.05 628541.08 6.50
785404.01 628540.41 6.67
785404.97 628539.74 6.70
785406.09 628538.91 6.76
785406.98 628538.25 6.84
785407.84 628537.59 6.92
785408.63 628536.91 6.97
785409.89 628535.79 7.02
785410.69 628535.14 7.07
785411.48 628534.46 7.11
785412.52 628533.45 7.21
785413.27 628532.73 7.35
785413.99 628532.00 7.46
785415.15 628530.83 7.50
785415.90 628530.11 7.51
785416.60 628529.36 7.53
785417.34 628528.57 7.44
785418.22 628527.66 7.31
785418.95 628526.88 7.26
785419.69 628526.05 7.13
785420.45 628525.21 7.02
785421.22 628524.37 6.91
785421.96 628523.54 6.81
785422.68 628522.73 6.77
785423.43 628521.90 6.73
785424.18 628521.02 6.75
785425.02 628519.86 6.69
785425.87 628518.49 6.58
785426.51 628517.55 6.55
785427.19 628516.45 6.52
785427.69 628515.37 6.48
785428.13 628514.45 6.51
785428.23 628513.43 6.49
785428.43 628512.38 6.50
785428.63 628511.26 6.48
785428.84 628510.08 6.46
785428.75 628509.07 6.38
785428.87 628508.05 6.33
784965.53 628301.10 1.79
784966.68 628301.31 1.67
784967.62 628301.69 1.63
784968.87 628302.14 1.43
784970.76 628302.95 1.42
784972.34 628303.62 1.49
784973.53 628304.28 1.44
784974.55 628304.85 1.34
784975.63 628305.42 1.34
784977.92 628306.64 1.35
784978.80 628307.12 1.36
784980.32 628307.96 1.41
784981.54 628308.64 1.43
784982.49 628309.13 1.51
784983.50 628309.63 1.56
784984.56 628310.15 1.58
784985.89 628310.91 1.58
784986.89 628311.46 1.56
784987.89 628311.98 1.61
784989.21 628312.66 1.59
784990.57 628313.37 1.67
784991.60 628313.91 1.70
784992.65 628314.44 1.81
784993.70 628315.00 1.70
784994.76 628315.59 1.72
784995.80 628316.17 1.78
784996.83 628316.75 1.84
784998.16 628317.50 1.90
784999.11 628318.10 1.97
785000.09 628318.69 1.99
785001.22 628319.28 1.82
785003.18 628320.22 1.79
785004.45 628320.74 1.84
785005.78 628321.25 1.95
785007.10 628321.80 2.04
785008.41 628322.36 2.10
785009.71 628322.95 2.14
785010.97 628323.58 2.22
785012.19 628324.24 2.27
785013.90 628325.00 2.21
785015.19 628325.61 2.16
785016.46 628326.26 2.09
785017.74 628326.89 1.99
785019.01 628327.55 1.86
785020.28 628328.29 1.71
785021.56 628328.83 1.63
785022.84 628329.25 1.59
785024.12 628329.94 1.62
785025.36 628330.57 1.66
785026.56 628331.00 1.75
785027.76 628331.55 1.79
785028.96 628332.15 1.89
785030.58 628332.93 1.86
785031.76 628333.46 1.82
785033.30 628334.14 1.86
785034.53 628334.75 1.80
785035.71 628335.39 1.75
785036.86 628336.04 1.75
785038.06 628336.55 1.69
785039.26 628337.07 1.62
785040.42 628337.65 1.51
785041.63 628338.22 1.57
785042.86 628338.78 1.62
785044.01 628339.32 1.80
785045.99 628340.24 1.87
785047.21 628340.83 1.94
785048.43 628341.48 1.96
785050.37 628342.48 1.80
785052.43 628343.50 1.79
785053.68 628343.91 1.61
785055.30 628344.41 1.41
785056.46 628345.00 1.29
785057.85 628345.32 1.30
785058.86 628345.42 1.24
785059.79 628345.80 1.15
785060.63 628346.45 1.07
785061.47 628347.09 1.02
785062.68 628347.33 1.04
785063.90 628347.66 1.14
785065.16 628348.14 1.41
785066.36 628348.67 1.61
785067.54 628349.21 1.64
785068.90 628349.73 1.55
785070.08 628350.23 1.50
785071.33 628350.77 1.51
785072.85 628351.47 1.57
785074.04 628352.05 1.69
785075.67 628352.80 1.71
785077.30 628353.41 1.71
785078.58 628353.81 1.68
785080.51 628354.65 1.70
785081.72 628355.09 1.69
785083.03 628355.28 1.71
785084.34 628355.64 1.78
785085.63 628356.06 1.90
785086.81 628356.51 1.95
785088.02 628356.92 2.03
785089.27 628357.28 2.21
785092.10 628358.45 2.36
785093.28 628358.95 2.35
785095.95 628360.12 2.32
785097.15 628360.60 2.37
785098.34 628361.05 2.38
785100.33 628361.81 2.41
785101.51 628362.27 2.44
785102.73 628362.72 2.46
785103.97 628363.14 2.50
785105.22 628363.55 2.54
785106.43 628364.00 2.55
785107.64 628364.47 2.66
785108.87 628364.87 2.76
785110.91 628365.56 2.69
785112.11 628365.99 2.52
785113.30 628366.42 2.43
785114.51 628366.85 2.67
785115.72 628367.28 2.75
785116.94 628367.70 2.81
785118.97 628368.38 2.77
785120.54 628368.94 2.81
785121.70 628369.38 2.91
785122.84 628369.77 2.91
785124.00 628370.17 2.96
785125.59 628370.73 2.99
785126.75 628371.18 2.92
785127.94 628371.64 3.03
785129.15 628372.12 3.10
785130.44 628372.34 3.12
785131.75 628372.52 3.04
785132.93 628372.86 2.96
785134.13 628373.25 3.04
785136.17 628373.96 3.06
785137.36 628374.37 2.99
785138.61 628374.73 3.13
785139.89 628375.06 3.22
785141.51 628375.43 3.25
785142.73 628375.73 3.28
785144.35 628376.25 3.21
785145.55 628376.78 3.01
785146.73 628377.18 2.93
785148.29 628377.69 2.96
785149.42 628378.11 3.02
785150.57 628378.53 3.12
785152.10 628379.08 2.98
785154.38 628379.92 2.94
785156.28 628380.62 2.95
785157.42 628381.04 3.06
785158.59 628381.44 3.00
785159.75 628381.84 3.07
785160.89 628382.23 3.06
785162.08 628382.62 3.17
785163.25 628383.01 3.13
785164.40 628383.36 3.31
785165.54 628383.73 3.49
785167.10 628384.24 3.52
785168.28 628384.64 3.66
785169.46 628385.04 3.84
785170.62 628385.45 3.88
785171.76 628385.83 3.91
785173.68 628386.48 3.84
785174.85 628386.88 3.86
785176.38 628387.49 3.87
785177.89 628388.07 3.84
785179.03 628388.51 3.79
785180.18 628388.96 3.89
785181.32 628389.29 3.95
785182.88 628389.81 4.14
785184.08 628390.30 4.26
785185.34 628390.63 4.30
785186.58 628390.96 4.40
785187.73 628391.40 4.41
785188.91 628391.77 4.41
785190.11 628392.09 4.51
785191.31 628392.47 4.65
785192.51 628392.85 4.65
785193.77 628393.17 4.70
785195.01 628393.52 4.77
785196.25 628393.90 4.86
785197.85 628394.33 4.93
785199.04 628394.65 4.79
785200.22 628394.99 4.71
785201.47 628395.35 4.73
785203.51 628395.96 4.73
785204.72 628396.36 4.63
785205.95 628396.86 4.54
785207.20 628397.32 4.52
785208.48 628397.75 4.49
785209.55 628398.21 4.50
785210.63 628398.62 4.60
785211.81 628398.91 4.67
785213.00 628399.20 4.68
785214.20 628399.47 4.75
785215.41 628399.73 4.80
785216.62 628399.96 4.88
785217.81 628400.12 4.92
785219.03 628400.38 4.99
785220.28 628400.70 5.01
785221.57 628400.83 5.05
785222.85 628400.95 5.19
785224.07 628401.08 5.21
785225.25 628401.29 5.27
785226.41 628401.56 5.31
785227.85 628402.22 5.30
785228.99 628402.51 5.24
785230.15 628402.67 5.16
785231.34 628402.80 5.12
785232.52 628402.93 5.06
785233.68 628403.02 5.00
785234.88 628403.05 4.85
785236.10 628403.04 4.74
785237.61 628403.02 4.60
785238.76 628403.10 4.51
785239.94 628403.23 4.44
785241.10 628403.27 4.41
785243.06 628403.43 4.39
785244.23 628403.49 4.35
785245.37 628403.41 4.25
785246.56 628403.42 4.13
785247.80 628403.49 4.03
785249.02 628403.64 3.98
785252.59 628403.74 4.05
785253.71 628403.71 3.95
785254.85 628403.76 3.88
785256.00 628403.88 3.81
785257.16 628404.10 3.71
785258.24 628404.16 3.63
785259.28 628404.12 3.54
785260.69 628404.25 3.51
785261.77 628404.36 3.54
785263.18 628404.49 3.54
785264.47 628404.58 3.43
785265.49 628404.79 3.35
785267.41 628405.04 3.16
785268.67 628405.14 3.03
785269.94 628405.32 3.10
785271.21 628405.56 3.00
785272.46 628405.81 3.10
785274.06 628406.19 3.06
785276.28 628406.71 2.99
785277.58 628407.01 2.91
785278.85 628407.31 2.72
785279.85 628407.49 2.66
785281.49 628407.76 2.80
785282.49 628407.93 2.65
785283.55 628408.13 2.50
785284.51 628408.46 2.34
785285.75 628408.90 2.16
785287.05 628409.16 1.94
785288.34 628409.41 1.75
785289.58 628409.71 1.68
785290.85 628410.07 1.49
785292.15 628410.47 1.51
785293.45 628410.93 1.41
785295.55 628411.28 1.31
785296.77 628411.56 1.23
785298.02 628411.92 1.11
785299.62 628412.18 0.97
785301.21 628412.43 0.98
785303.38 628412.82 0.93
785304.63 628413.04 1.00
785305.87 628413.28 0.92
785307.12 628413.57 0.86
785308.39 628413.91 0.82
785309.65 628414.24 0.72
785310.88 628414.54 0.77
785312.70 628414.98 0.75
785313.89 628415.29 0.72
785315.06 628415.63 0.74
785316.21 628416.00 0.80
785317.40 628416.34 0.86
785318.61 628416.66 1.02
785319.83 628417.00 1.13
785321.02 628417.40 1.34
785322.21 628417.86 1.38
785323.40 628418.25 1.40
785324.89 628418.75 1.46
785326.34 628419.21 1.48
785327.46 628419.64 1.50
785328.57 628420.04 1.52
785329.69 628420.35 1.54
785330.73 628420.75 1.50
785332.52 628421.49 1.47
785334.04 628422.07 1.45
785335.03 628422.49 1.39
785335.99 628422.88 1.50
785336.97 628423.31 1.56
785337.94 628423.67 1.72
785339.57 628424.23 1.74
785340.71 628424.68 1.84
785341.82 628425.11 1.88
785342.79 628425.38 1.95
785343.99 628425.69 2.00
785345.69 628426.16 2.00
785346.90 628426.48 1.97
785347.90 628426.69 1.92
785349.15 628427.02 1.86
785350.42 628427.29 1.81
785351.75 628427.53 1.73
785353.18 628427.97 1.64
785354.25 628428.22 1.51
785358.69 628429.11 1.24
785359.82 628429.37 1.09
785360.97 628429.76 0.99
785362.07 628430.04 0.90
785363.13 628430.29 0.82
785368.66 628431.67 0.35
785369.71 628431.93 0.34
785370.75 628432.13 0.39
785371.87 628432.47 0.45
785373.00 628432.80 0.44
785374.12 628433.15 0.39
785375.26 628433.44 0.34
785376.38 628433.66 0.30
785377.49 628433.93 0.29
785378.62 628434.25 0.28
785380.39 628434.70 0.14
785381.53 628435.00 0.08
785382.99 628435.40 -0.02
785384.49 628435.85 -0.06
785385.73 628436.22 -0.06
785386.96 628436.64 -0.06
785388.17 628437.12 -0.04
785389.32 628437.65 -0.02
785390.47 628438.19 0.03
785391.62 628438.73 0.09
785392.75 628439.27 0.15
785393.87 628439.81 0.72
785394.97 628440.34 0.99
785396.06 628440.88 1.42
785397.12 628441.43 1.61
785398.44 628442.11 1.95
785399.45 628442.70 2.34
785400.41 628443.31 2.89
785401.35 628443.90 3.35
785402.32 628444.43 3.64
785403.42 628445.16 3.67
785404.65 628446.08 3.61
785405.47 628446.74 3.42
785406.30 628447.36 3.18
785407.09 628448.00 3.07
785407.86 628448.67 3.12
785408.68 628449.35 3.15
785409.83 628450.39 3.15
785410.58 628451.16 3.23
785411.31 628451.88 3.29
785412.16 628452.82 3.24
785412.99 628453.76 3.04
785413.76 628454.69 2.75
785414.54 628455.61 2.51
785415.29 628456.53 2.27
785416.06 628457.44 2.02
785416.84 628458.35 1.71
785417.53 628459.34 1.52
785418.46 628460.90 1.40
785419.08 628461.86 1.40
785419.86 628462.97 1.40
785420.50 628463.91 1.40
785421.12 628464.92 1.40
785421.75 628465.86 1.40
785422.39 628466.79 1.40
785423.01 628467.79 1.43
785423.75 628468.96 1.49
785424.29 628469.81 1.40
785424.88 628470.69 1.40
785425.53 628471.57 1.40
785426.19 628472.42 1.40
785426.76 628473.33 1.40
785427.34 628474.25 1.40
785427.97 628475.36 1.40
785428.58 628476.25 1.43
785429.24 628477.16 1.49
785429.78 628478.12 1.61
785430.35 628479.13 1.72
785431.03 628480.12 1.76
785431.86 628481.11 1.88
785432.54 628481.86 2.22
785433.22 628482.62 2.45
785434.00 628483.60 2.78
785434.70 628484.56 2.97
785435.40 628485.53 3.11
785436.05 628486.65 3.15
785437.02 628488.41 3.15
785438.12 628489.78 3.19
785438.82 628490.75 3.21
785439.84 628492.10 3.24
785440.79 628493.40 3.18
785441.54 628494.55 3.26
785442.31 628495.60 3.35
785443.07 628496.58 3.48
785443.75 628497.56 3.56
785444.26 628498.57 3.59
785445.57 628500.28 3.56
785446.45 628501.38 3.56
785447.15 628502.21 3.56
785448.32 628503.64 3.56
785448.98 628504.69 3.57
785449.66 628505.60 3.58
785450.33 628506.50 3.63
785451.02 628507.40 3.65
785452.16 628508.80 3.62
785452.97 628509.66 3.60
785453.72 628510.62 3.58
785454.21 628511.51 3.49
785455.01 628512.33 3.42
785455.96 628512.97 3.34
785456.83 628513.68 3.37
785457.55 628514.52 3.40
785458.44 628515.16 3.41
785459.02 628516.19 3.41
785459.95 628516.93 3.39
785460.82 628517.99 3.37
785461.28 628519.00 3.29
785462.09 628519.77 3.42
785463.51 628520.95 3.42
785464.11 628521.84 3.45
785464.95 628522.58 3.48
785465.79 628523.36 3.52
785466.45 628524.32 3.50
785467.83 628525.86 3.44
785468.55 628526.58 3.45
785469.00 628527.55 3.32
785469.57 628528.50 3.10
785469.99 628529.71 3.16
785471.00 628530.66 3.25
785471.73 628531.45 3.32
785472.33 628532.38 3.35
785472.93 628533.32 3.41
785473.83 628533.92 3.41
785474.37 628535.77 3.40
785475.33 628536.35 3.30
785476.15 628537.23 3.26
785476.98 628538.08 3.20
785477.86 628538.95 3.13
785478.73 628539.85 3.07
785479.45 628540.72 2.93
785480.11 628541.79 2.83
785480.41 628542.78 2.73
785480.61 628543.88 2.78
785481.53 628544.47 2.92
785482.74 628546.40 2.99
785483.62 628547.00 3.01
785484.29 628548.03 2.95
785484.66 628549.01 2.88
785484.94 628550.10 2.76
785485.76 628551.01 2.65
785486.26 628552.54 2.75
785487.28 628553.89 2.81
785487.82 628554.92 2.83
785488.62 628556.26 2.83
785489.42 628557.19 2.80
785490.49 628558.42 2.81
785491.49 628559.80 2.80
785491.90 628560.73 2.68
785492.44 628561.91 2.61
785493.31 628562.85 2.66
785494.21 628564.23 2.64
785494.71 628565.36 2.57
785495.70 628566.06 2.63
785496.37 628567.11 2.64
785496.78 628568.41 2.60
785497.78 628569.42 2.57
785498.56 628570.25 2.43
785499.22 628571.25 2.40
785500.13 628572.06 2.35
785500.82 628573.07 2.32
785501.31 628574.27 2.16
785501.98 628575.30 2.06
785502.56 628576.48 2.10
785502.98 628577.77 2.10
785503.38 628579.11 2.05
785503.68 628580.11 2.04
785504.14 628581.64 1.96
785505.22 628583.27 1.94
785505.71 628584.47 1.89
785506.58 628584.98 1.85
785507.48 628585.95 1.86
785507.98 628586.86 1.87
785508.59 628588.13 1.91
785508.88 628589.22 1.97
785509.12 628590.34 2.03
785509.55 628591.27 2.04
785510.18 628592.23 2.06
785510.79 628593.23 2.07
785511.18 628594.42 2.09
785511.67 628595.33 2.10
785512.19 628596.44 2.18
785512.38 628597.61 2.25
785512.73 628598.78 2.27
785513.56 628600.52 2.28
785514.03 628601.41 2.28
785514.65 628602.57 2.25
785515.64 628603.95 2.24
785516.34 628604.89 2.26
785516.77 628605.88 2.28
785517.32 628607.04 2.39
785517.81 628608.16 2.44
785518.27 628609.33 2.53
785518.61 628610.28 2.58
785519.07 628611.52 2.64
785519.43 628612.46 2.71
785519.80 628613.41 2.76
785520.48 628614.97 2.75
785520.90 628616.12 2.71
785521.43 628617.29 2.78
785522.05 628618.19 2.94
785522.68 628619.13 3.03
785523.12 628620.10 3.12
785523.14 628621.32 3.17
785523.45 628622.61 3.25
785523.83 628623.61 3.28
785524.12 628624.85 3.32
785524.60 628626.31 3.34
785525.01 628627.84 3.39
785525.38 628629.09 3.43
785525.73 628630.37 3.46
785526.04 628631.69 3.49
785526.27 628632.75 3.51
785526.51 628633.93 3.54
785526.64 628635.29 3.58
785526.72 628636.37 3.62
785526.98 628637.57 3.65
785527.29 628638.84 3.68
785527.57 628639.93 3.70
785527.71 628640.93 3.76
785527.69 628642.03 3.78
785527.86 628643.08 3.80
785527.79 628644.38 3.90
785527.65 628645.64 3.95
785527.69 628646.91 4.01
785527.65 628648.17 4.09
785527.79 628649.19 4.13
785527.88 628650.21 4.17
785527.67 628651.47 4.20
785527.93 628652.46 4.23
785528.22 628653.44 4.26
785528.53 628654.68 4.26
785528.75 628656.10 4.31
785529.26 628657.28 4.35
785530.12 628658.98 4.35
785530.86 628660.38 4.39
785531.51 628661.57 4.36
785532.30 628662.98 4.31
785532.85 628664.17 4.18
785533.27 628665.09 4.13
785534.01 628666.23 4.15
785534.71 628667.32 4.09
785535.43 628668.42 4.01
785536.34 628669.77 3.96
785537.09 628670.82 3.86
785537.85 628671.86 3.83
785538.62 628672.93 3.80
785539.26 628673.70 3.77
785539.87 628674.50 3.77
785540.40 628675.42 3.78
785540.98 628676.27 3.73
785541.58 628677.08 3.67
785542.12 628677.94 3.59
785542.67 628678.81 3.57
785543.24 628679.71 3.53
785543.82 628680.57 3.48
785544.41 628681.41 3.44
785545.30 628682.58 3.43
785545.87 628683.45 3.44
785546.52 628684.57 3.39
785547.11 628685.53 3.37
785547.53 628686.72 3.32
785548.15 628688.13 3.29
785548.66 628689.21 3.27
785549.26 628690.51 3.30
785549.73 628691.88 3.24
785550.05 628692.84 3.19
785550.36 628694.05 3.04
785550.38 628695.24 2.89
785550.98 628696.41 2.95
785551.36 628697.67 3.07
785551.56 628698.96 2.97
785551.74 628700.21 2.93
785552.22 628701.31 3.25
785552.47 628702.39 3.39
785552.87 628703.50 3.48
785553.36 628705.13 3.36
785553.61 628706.14 2.88
785553.86 628707.11 3.14
785554.26 628708.76 3.06
785554.60 628709.88 3.23
785471.19 628754.13 1.16
785470.69 628753.10 1.15
785470.21 628751.74 1.16
785469.77 628750.68 1.16
785469.27 628749.65 1.17
785468.77 628748.59 1.17
785468.30 628747.50 1.17
785467.72 628746.12 1.18
785467.25 628744.94 1.18
785466.69 628743.82 1.18
785466.20 628742.60 1.19
785465.81 628741.33 1.19
785465.48 628740.04 1.20
785465.25 628739.06 1.20
785465.10 628736.91 1.19
785465.19 628735.45 1.18
785465.68 628733.33 1.17
785466.07 628732.19 1.16
785466.55 628731.10 1.24
785467.19 628729.99 1.38
785467.81 628728.86 1.54
785468.38 628728.02 1.70
785468.98 628727.18 1.91
785469.57 628726.35 2.11
785470.23 628725.57 2.35
785470.99 628724.84 2.54
785471.80 628724.16 2.79
785472.61 628723.52 2.98
785473.70 628722.79 3.26
785475.14 628721.96 3.59
785476.89 628721.03 3.98
785477.79 628720.59 4.51
785478.74 628720.14 4.74
785479.73 628719.68 4.90
785480.76 628719.15 5.05
785481.79 628718.59 5.16
785483.25 628717.81 5.24
785484.74 628716.95 5.28
785485.87 628716.25 5.36
785487.01 628715.53 5.43
785488.14 628714.80 5.46
785489.65 628713.86 5.56
785490.76 628713.20 5.58
785491.93 628712.59 5.66
785493.51 628711.84 5.76
785495.46 628711.06 5.82
785496.58 628710.71 5.87
785498.39 628710.24 5.93
785499.46 628710.10 6.02
785500.53 628709.98 6.04
785501.62 628709.89 5.99
785502.73 628709.82 5.99
785503.86 628709.77 6.00
785505.39 628709.76 6.04
785506.96 628709.76 6.10
785508.53 628709.79 6.05
785510.10 628709.86 6.07
785511.30 628709.85 6.14
785512.48 628709.90 6.15
785514.38 628710.07 6.20
785515.49 628710.17 6.25
785516.61 628710.30 6.28
785517.72 628710.43 6.38
785518.77 628710.56 6.37
785519.85 628710.69 6.30
785520.95 628710.81 6.28
785522.39 628710.96 6.28
785523.53 628711.05 6.20
785524.71 628711.13 6.10
785525.93 628711.22 6.01
785527.14 628711.30 5.90
785528.27 628711.38 5.82
785529.38 628711.47 5.76
785530.45 628711.57 5.72
785531.48 628711.60 5.66
785532.78 628711.66 5.59
785533.99 628711.73 5.51
785535.10 628711.66 5.37
785536.45 628711.42 5.25
785537.57 628711.06 5.19
785538.50 628710.52 5.10
785539.33 628709.79 5.02
785541.80 628699.93 4.58
785541.58 628698.47 4.57
785541.38 628697.18 4.53
785541.36 628695.53 4.50
785541.34 628694.15 4.48
785540.94 628692.99 4.43
785540.70 628691.82 4.51
785540.23 628690.38 4.47
785539.73 628689.18 4.43
785539.25 628687.94 4.43
785538.78 628687.02 4.46
785538.25 628685.80 4.46
785537.82 628684.65 4.47
785537.38 628683.53 4.50
785536.80 628682.57 4.50
785536.33 628681.40 4.49
785535.69 628680.24 4.49
785534.97 628679.36 4.52
785534.36 628678.23 4.50
785533.94 628677.05 4.52
785533.47 628675.84 4.54
785532.99 628674.91 4.54
785532.45 628673.97 4.52
785531.79 628672.69 4.53
785531.34 628671.72 4.53
785530.91 628670.73 4.55
785530.48 628669.73 4.57
785530.03 628668.72 4.59
785529.57 628667.72 4.60
785529.11 628666.74 4.60
785528.65 628665.73 4.60
785528.18 628664.74 4.60
785527.53 628663.45 4.58
785526.97 628662.18 4.55
785526.47 628661.30 4.57
785525.92 628660.44 4.62
785525.27 628659.67 4.66
785524.33 628658.72 4.71
785523.56 628658.07 4.75
785522.46 628657.34 4.79
785521.33 628656.75 4.87
785520.12 628656.28 4.96
785518.85 628655.92 5.07
785517.56 628655.69 5.17
785516.54 628655.65 5.24
785515.16 628655.67 5.33
785514.11 628655.75 5.41
785513.07 628655.93 5.50
785512.01 628656.16 5.59
785510.89 628656.46 5.69
785509.70 628656.78 5.80
785508.48 628657.11 5.95
785507.20 628657.55 6.08
785505.92 628658.01 6.16
785504.62 628658.49 6.26
785503.31 628658.97 6.32
785501.56 628659.62 6.35
785500.27 628660.12 6.29
785498.93 628660.70 6.31
785497.57 628661.30 6.25
785495.81 628662.13 6.20
785494.49 628662.79 6.14
785492.73 628663.68 6.10
785491.41 628664.35 6.00
785490.11 628664.91 5.89
785488.82 628665.43 5.82
785487.42 628665.90 5.90
785485.56 628666.42 5.91
785484.20 628666.74 5.82
785482.96 628667.04 5.77
785481.76 628667.30 5.74
785480.61 628667.54 5.69
785479.51 628667.78 5.59
785476.52 628668.62 5.43
785475.32 628669.06 5.30
785474.23 628669.54 5.20
785473.22 628670.08 5.13
785472.28 628670.65 5.03
785471.42 628671.26 4.98
785470.64 628671.92 4.93
785469.78 628672.83 4.86
785468.94 628673.61 4.77
785468.22 628674.46 4.67
785467.45 628675.26 4.63
785466.72 628676.11 4.57
785466.14 628677.08 4.51
785465.35 628677.94 4.45
785464.44 628678.73 4.41
785463.56 628679.46 4.39
785462.73 628680.14 4.31
785461.93 628680.78 4.16
785460.86 628681.46 4.02
785459.74 628681.95 3.84
785458.66 628682.35 3.61
785457.66 628682.54 3.44
785456.66 628682.69 3.28
785455.58 628682.74 3.11
785454.37 628682.62 2.93
785453.21 628682.40 2.72
785452.08 628682.04 2.56
785451.12 628681.73 2.42
785450.18 628681.37 2.28
785425.25 628651.36 0.79
785425.08 628649.99 0.78
785425.33 628648.94 0.78
785425.46 628647.62 0.79
785425.88 628646.37 0.86
785426.25 628645.42 0.96
785426.56 628644.14 1.08
785427.01 628643.09 1.22
785427.53 628642.05 1.48
785428.17 628641.06 1.64
785428.93 628640.02 1.96
785429.75 628638.97 2.20
785430.64 628638.02 2.43
785431.56 628637.09 2.71
785432.57 628636.17 2.94
785433.44 628635.32 3.14
785434.24 628634.49 3.34
785435.31 628633.70 3.49
785436.41 628632.92 3.71
785437.58 628632.14 3.83
785438.82 628631.42 3.94
785440.09 628630.72 4.14
785441.43 628630.15 4.30
785442.77 628629.62 4.41
785444.15 628629.17 4.47
785445.51 628628.77 4.59
785446.87 628628.39 4.80
785448.28 628628.10 4.92
785449.67 628627.82 5.05
785451.04 628627.59 5.15
785452.92 628627.25 5.32
785454.34 628626.96 5.55
785455.76 628626.65 5.73
785457.12 628626.32 5.77
785458.45 628625.99 5.86
785461.89 628624.82 6.05
785463.52 628624.14 6.06
785464.79 628623.57 6.02
785465.98 628622.94 6.05
785467.15 628622.30 6.15
785468.29 628621.60 6.21
785469.78 628620.70 6.20
785471.28 628619.82 6.19
785472.76 628618.93 6.22
785474.20 628618.05 6.32
785475.72 628617.25 6.40
785476.77 628616.61 6.46
785477.78 628615.96 6.48
785478.88 628615.34 6.52
785480.34 628614.49 6.52
785482.13 628613.39 6.53
785483.17 628612.72 6.43
785484.18 628612.00 6.38
785485.16 628611.31 6.27
785486.08 628610.65 6.14
785486.99 628609.96 6.08
785487.88 628609.27 6.07
785488.71 628608.66 5.97
785489.52 628608.03 5.89
785490.58 628607.15 5.77
785491.35 628606.42 5.63
785492.13 628605.72 5.55
785493.20 628604.85 5.41
785493.99 628604.16 5.33
785494.73 628603.46 5.31
785495.63 628602.51 5.23
785496.56 628601.17 5.09
785497.23 628600.08 4.99
785498.00 628598.76 4.89
785498.56 628597.60 4.80
785499.02 628596.46 4.63
785499.46 628595.37 4.54
785499.97 628594.29 4.40
785500.93 628589.43 4.15
785500.96 628588.28 4.12
785500.80 628587.23 4.08
785500.84 628585.86 4.01
785500.59 628584.86 3.93
785499.66 628584.21 3.84
785499.28 628582.17 3.81
785498.94 628580.42 3.77
785498.61 628579.36 3.68
785498.04 628577.40 3.72
785497.60 628576.06 3.71
785496.78 628575.12 3.69
785496.31 628573.51 3.62
785495.81 628572.53 3.59
785495.17 628571.19 3.55
785494.67 628570.09 3.57
785494.04 628568.69 3.54
785493.27 628567.92 3.54
785492.47 628566.80 3.50
785491.98 628565.71 3.40
785491.30 628564.86 3.29
785490.43 628563.98 3.39
785490.04 628562.23 3.40
785489.66 628561.13 3.46
785488.63 628560.51 3.51
785487.97 628559.41 3.49
785487.52 628558.00 3.45
785486.76 628557.17 3.50
785485.75 628556.83 3.55
785485.20 628555.72 3.58
785484.45 628554.76 3.59
785483.68 628554.01 3.59
785482.99 628552.97 3.62
785482.45 628551.92 3.74
785481.30 628551.83 3.77
785480.90 628550.70 3.79
785479.95 628550.20 3.85
785478.94 628549.96 3.94
785477.74 628549.65 4.01
785476.73 628549.53 4.06
785475.73 628549.60 4.22
785474.57 628549.86 4.48
785473.26 628550.28 4.76
785472.08 628550.67 4.95
785471.10 628551.29 5.10
785470.19 628551.89 5.24
785469.16 628552.63 5.45
785468.10 628553.19 5.62
785467.02 628553.82 5.75
785465.96 628554.65 5.84
785464.98 628555.64 5.91
785464.07 628556.73 5.97
785463.14 628557.66 6.05
785462.24 628558.64 6.10
785461.38 628559.74 6.14
785460.53 628560.89 6.27
785459.69 628562.08 6.38
785458.79 628563.21 6.45
785457.89 628564.35 6.51
785456.99 628565.52 6.53
785456.08 628566.70 6.52
785454.82 628568.25 6.49
785453.82 628569.35 6.50
785452.82 628570.35 6.56
785451.81 628571.28 6.66
785450.41 628572.40 6.65
785449.33 628573.17 6.63
785447.87 628574.11 6.62
785446.74 628574.75 6.57
785445.58 628575.32 6.58
785444.41 628575.86 6.55
785443.30 628576.28 6.49
785442.17 628576.70 6.61
785440.97 628577.13 6.52
785439.82 628577.50 6.47
785438.68 628577.85 6.41
785437.53 628578.19 6.38
785436.36 628578.53 6.33
785435.19 628578.90 6.30
785434.06 628579.27 6.24
785432.95 628579.65 6.18
785431.84 628580.08 6.08
785430.77 628580.51 5.91
785428.74 628581.38 5.63
785427.75 628581.80 5.55
785426.79 628582.21 5.43
785425.80 628582.63 5.31
785424.76 628583.08 5.21
785423.76 628583.50 5.10
785422.80 628583.91 4.99
785421.77 628584.32 4.89
785420.77 628584.73 4.78
785419.80 628585.12 4.63
785418.81 628585.51 4.49
785417.49 628586.03 4.34
785416.49 628586.41 4.21
785415.25 628586.94 3.99
785414.14 628587.49 3.78
785412.97 628588.24 3.55
785412.03 628589.05 3.34
785411.28 628589.86 3.21
785410.44 628590.96 3.11
785409.91 628591.85 3.01
785409.48 628592.80 2.90
785409.17 628593.80 2.79
785408.75 628594.74 2.68
785408.20 628595.74 2.55
785407.47 628596.56 2.42
785406.55 628597.20 2.28
785405.54 628597.60 2.17
785404.44 628597.86 2.05
785475.49 628747.02 1.80
785474.60 628746.20 1.66
785473.71 628745.33 1.56
785472.84 628744.40 1.46
785471.99 628743.40 1.39
785471.34 628742.59 1.32
785470.44 628741.52 1.26
785469.77 628740.71 1.22
